# .PCD v0.7 - Point Cloud Data file format
VERSION 0.7
FIELDS x y z
SIZE 4 4 4
TYPE F F F
COUNT 1 1 1
WIDTH 1487
HEIGHT 1
VIEWPOINT 0 0 0 1 0 0 0
POINTS 1487
DATA ascii
0.33484185 0.08581505 -1.327
0.33496261 0.085297704 -1.319
0.33480179 0.084715679 -1.3099999
0.33692658 0.084715679 -1.3099999
0.33568677 0.083875 -1.2970001
0.33779049 0.083875 -1.2970001
0.33779767 0.083357647 -1.289
0.33698788 0.082646295 -1.278
0.33906075 0.082646295 -1.278
0.33846438 0.081999607 -1.268
0.34052104 0.081999607 -1.268
0.32775927 0.073592708 -1.138
0.32960507 0.073592708 -1.138
0.32649952 0.072493352 -1.1210001
0.32831776 0.072493352 -1.1210001
0.32660195 0.071717322 -1.109
0.3284007 0.071717322 -1.109
0.32662654 0.070941299 -1.097
0.32631031 0.070488624 -1.09
0.32807824 0.070488624 -1.09
0.3274253 0.069971278 -1.082
0.3291803 0.069971278 -1.082
0.3287943 0.069518596 -1.075
0.32746315 0.068871915 -1.0650001
0.32919055 0.068871915 -1.0650001
0.32874286 0.068419233 -1.058
0.32827252 0.067966551 -1.051
0.32997724 0.067966551 -1.051
0.32947284 0.067513876 -1.044
0.33116618 0.067513876 -1.044
0.32999 0.066931859 -1.035
0.3294256 0.066479176 -1.028
0.33109298 0.066479176 -1.028
0.33114189 0.066155836 -1.023
0.33280116 0.066155836 -1.023
0.33249879 0.065767825 -1.017
0.33184841 0.065315142 -1.01
0.33348662 0.065315142 -1.01
0.33247036 0.064797796 -1.002
0.33409557 0.064797796 -1.002
0.33304039 0.06428045 -0.99400002
0.33195925 0.063763104 -0.986
0.33355853 0.063763104 -0.986
0.33209854 0.063181087 -0.977
0.33368319 0.063181087 -0.977
0.33183628 0.062534399 -0.96700001
0.33030167 0.061952386 -0.958
0.33185554 0.061952386 -0.958
0.32992911 0.061305702 -0.94800001
0.33146676 0.061305702 -0.94800001
0.33019421 0.060788352 -0.94
0.32818994 0.060141671 -0.93000001
0.32969838 0.060141671 -0.93000001
0.32835773 0.059624322 -0.92199999
0.32985318 0.059624322 -0.92199999
0.32811424 0.059042305 -0.91299999
0.32670707 0.058524955 -0.90499997
0.32817495 0.058524955 -0.90499997
0.32745737 0.058136947 -0.89899999
0.32891554 0.058136947 -0.89899999
0.32780126 0.057684269 -0.89200002
0.3274025 0.057360929 -0.88700002
0.32884121 0.057360929 -0.88700002
0.32841811 0.057037584 -0.88200003
0.32984871 0.057037584 -0.88200003
0.32940125 0.05671424 -0.87699997
0.32893762 0.056390896 -0.87199998
0.33035198 0.056390896 -0.87199998
0.32948357 0.056002889 -0.866
0.33088818 0.056002889 -0.866
0.33037427 0.055679545 -0.861
0.3294588 0.055291537 -0.85500002
0.33084559 0.055291537 -0.85500002
0.33067808 0.05503286 -0.85100001
0.33205837 0.05503286 -0.85100001
0.33069593 0.054580182 -0.84399998
0.3293108 0.054127503 -0.83700001
0.33066839 0.054127503 -0.83700001
0.32924917 0.053674821 -0.82999998
0.3305954 0.053674821 -0.82999998
0.32954207 0.053286813 -0.824
0.32806772 0.052834131 -0.81699997
0.32939285 0.052834131 -0.81699997
0.32828924 0.052446123 -0.81099999
0.32960469 0.052446123 -0.81099999
0.32887989 0.052122779 -0.80599999
0.32772925 0.051734772 -0.80000001
0.32902682 0.051734772 -0.80000001
0.32825989 0.051411428 -0.79500002
0.32954934 0.051411428 -0.79500002
0.3283419 0.051023416 -0.78899997
0.3275328 0.050700072 -0.78399998
0.32880443 0.050700072 -0.78399998
0.32797098 0.050376732 -0.77899998
0.32923448 0.050376732 -0.77899998
0.32922524 0.050182726 -0.77600002
0.32920626 0.049988721 -0.773
0.33046004 0.049988721 -0.773
0.32956821 0.04966538 -0.76800001
0.33081388 0.04966538 -0.76800001
0.3298977 0.049342036 -0.76300001
0.32896534 0.049018696 -0.75800002
0.33019477 0.049018696 -0.75800002
0.32967529 0.048760019 -0.75400001
0.33089826 0.048760019 -0.75400001
0.33035931 0.048501346 -0.75
0.33024949 0.048307341 -0.74699998
0.3314611 0.048307341 -0.74699998
0.33000064 0.047919329 -0.741
0.33120254 0.047919329 -0.741
0.33061007 0.047660656 -0.73699999
0.32955441 0.047337312 -0.73199999
0.33074167 0.047337312 -0.73199999
0.32920825 0.046949305 -0.72600001
0.3303858 0.046949305 -0.72600001
0.32927987 0.046625961 -0.72100002
0.32815772 0.04630262 -0.71600002
0.32931903 0.04630262 -0.71600002
0.32817256 0.045979276 -0.71100003
0.3293258 0.045979276 -0.71100003
0.32815492 0.045655932 -0.70599997
0.32650149 0.045267921 -0.69999999
0.32763687 0.045267921 -0.69999999
0.32689354 0.045009248 -0.69599998
0.32802242 0.045009248 -0.69599998
0.32725966 0.044750575 -0.69199997
0.32648391 0.044491902 -0.68800002
0.32759982 0.044491902 -0.68800002
0.32632685 0.044168562 -0.68300003
0.32743466 0.044168562 -0.68300003
0.32661834 0.043909885 -0.67900002
0.32578906 0.043651212 -0.67500001
0.32688388 0.043651212 -0.67500001
0.32652104 0.043457206 -0.67199999
0.327611 0.043457206 -0.67199999
0.32723355 0.043263204 -0.66900003
0.32684636 0.043069195 -0.66600001
0.32792661 0.043069195 -0.66600001
0.32703084 0.042810522 -0.662
0.32810459 0.042810522 -0.662
0.32718933 0.042551849 -0.65799999
0.3262611 0.042293172 -0.65399998
0.32732186 0.042293172 -0.65399998
0.32687631 0.04209917 -0.65100002
0.32793221 0.04209917 -0.65100002
0.32747203 0.041905165 -0.648
0.32750914 0.041775826 -0.64600003
0.32855693 0.041775826 -0.64600003
0.32807404 0.041581821 -0.64300001
0.32911697 0.041581821 -0.64300001
-0.49996549 0.13838737 -2.1949999
-0.49640524 0.13838737 -2.1949999
-0.492845 0.13838737 -2.1949999
-0.48928478 0.13838737 -2.1949999
-0.48572454 0.13838737 -2.1949999
-0.480407 0.13788299 -2.187
-0.47685975 0.13788299 -2.187
-0.4733125 0.13788299 -2.187
-0.47148359 0.13838737 -2.1949999
-0.46792337 0.13838737 -2.1949999
-0.46436313 0.13838737 -2.1949999
-0.46080288 0.13838737 -2.1949999
-0.45724264 0.13838737 -2.1949999
-0.45368242 0.13838737 -2.1949999
-0.45012218 0.13838737 -2.1949999
-0.44798607 0.13882869 -2.2019999
-0.44441447 0.13882869 -2.2019999
-0.44084287 0.13882869 -2.2019999
-0.4372713 0.13882869 -2.2019999
-0.43527538 0.13933307 -2.21
-0.43169081 0.13933307 -2.21
-0.42810625 0.13933307 -2.21
-0.42452168 0.13933307 -2.21
-0.42093712 0.13933307 -2.21
-0.41735256 0.13933307 -2.21
-0.41376799 0.13933307 -2.21
-0.41018343 0.13933307 -2.21
-0.40512699 0.13882869 -2.2019999
-0.40155539 0.13882869 -2.2019999
-0.39671865 0.13838737 -2.1949999
-0.39172551 0.13788299 -2.187
-0.38817826 0.13788299 -2.187
-0.38322398 0.13737862 -2.1789999
-0.37968969 0.13737862 -2.1789999
-0.37494704 0.13693729 -2.1719999
-0.37005609 0.13643293 -2.164
-0.36654612 0.13643293 -2.164
-0.36303616 0.13643293 -2.164
-0.35836324 0.1359916 -2.1570001
-0.35486466 0.1359916 -2.1570001
-0.35136604 0.1359916 -2.1570001
-0.34786743 0.1359916 -2.1570001
-0.34436885 0.1359916 -2.1570001
-0.34087023 0.1359916 -2.1570001
-0.33737165 0.1359916 -2.1570001
-0.33387303 0.1359916 -2.1570001
-0.33037445 0.1359916 -2.1570001
-0.32793662 0.13643293 -2.164
-0.32442668 0.13643293 -2.164
-0.32091671 0.13643293 -2.164
-0.31740677 0.13643293 -2.164
-0.31288144 0.1359916 -2.1570001
-0.30938283 0.1359916 -2.1570001
-0.30588424 0.1359916 -2.1570001
-0.30126411 0.13548721 -2.1489999
-0.29777849 0.13548721 -2.1489999
-0.29333425 0.1350459 -2.142
-0.28985998 0.1350459 -2.142
-0.28638572 0.1350459 -2.142
-0.28093028 0.1341002 -2.1270001
-0.27748033 0.1341002 -2.1270001
-0.27403042 0.1341002 -2.1270001
-0.26879948 0.13321754 -2.1129999
-0.26537225 0.13321754 -2.1129999
-0.26095328 0.13271317 -2.105
-0.2566826 0.13227186 -2.098
-0.25327969 0.13227186 -2.098
-0.24987678 0.13227186 -2.098
-0.24647388 0.13227186 -2.098
-0.24307097 0.13227186 -2.098
-0.23966807 0.13227186 -2.098
-0.23705347 0.13271317 -2.105
-0.23363921 0.13271317 -2.105
-0.23022495 0.13271317 -2.105
-0.22767267 0.13321754 -2.1129999
-0.22424543 0.13321754 -2.1129999
-0.22081821 0.13321754 -2.1129999
-0.21739097 0.13321754 -2.1129999
-0.21467255 0.13365887 -2.1199999
-0.21262893 0.13454153 -2.1340001
-0.20916763 0.13454153 -2.1340001
-0.20647748 0.1350459 -2.142
-0.20300321 0.1350459 -2.142
-0.19952895 0.1350459 -2.142
-0.19669537 0.13548721 -2.1489999
-0.19392902 0.1359916 -2.1570001
-0.19043042 0.1359916 -2.1570001
-0.1869318 0.1359916 -2.1570001
-0.1834332 0.1359916 -2.1570001
-0.18051854 0.13643293 -2.164
-0.17700858 0.13643293 -2.164
-0.17349863 0.13643293 -2.164
-0.16998868 0.13643293 -2.164
-0.16647872 0.13643293 -2.164
-0.16244161 0.1359916 -2.1570001
-0.158943 0.1359916 -2.1570001
-0.1554444 0.1359916 -2.1570001
-0.15138225 0.13548721 -2.1489999
-0.14789662 0.13548721 -2.1489999
-0.144411 0.13548721 -2.1489999
-0.14092538 0.13548721 -2.1489999
-0.13743976 0.13548721 -2.1489999
-0.1335178 0.1350459 -2.142
-0.13004352 0.1350459 -2.142
-0.12656926 0.1350459 -2.142
-0.12309498 0.1350459 -2.142
-0.11962071 0.1350459 -2.142
-0.11614644 0.1350459 -2.142
-0.11225136 0.13454153 -2.1340001
-0.10879007 0.13454153 -2.1340001
-0.10532878 0.13454153 -2.1340001
-0.10224935 0.1350459 -2.142
-0.098775089 0.1350459 -2.142
-0.095300816 0.1350459 -2.142
-0.091826543 0.1350459 -2.142
-0.08835227 0.1350459 -2.142
-0.084878005 0.1350459 -2.142
-0.081669755 0.13548721 -2.1489999
-0.078184128 0.13548721 -2.1489999
-0.074698508 0.13548721 -2.1489999
-0.07121288 0.13548721 -2.1489999
-0.06772726 0.13548721 -2.1489999
-0.064241633 0.13548721 -2.1489999
-0.060756009 0.13548721 -2.1489999
-0.057083834 0.1350459 -2.142
-0.053609565 0.1350459 -2.142
-0.049948048 0.13454153 -2.1340001
-0.046334267 0.1341002 -2.1270001
-0.042884327 0.1341002 -2.1270001
-0.039434385 0.1341002 -2.1270001
-0.035866015 0.13365887 -2.1199999
-0.032427426 0.13365887 -2.1199999
-0.028893122 0.13321754 -2.1129999
-0.025465889 0.13321754 -2.1129999
-0.022038655 0.13321754 -2.1129999
-0.018611422 0.13321754 -2.1129999
-0.015184188 0.13321754 -2.1129999
-0.011756955 0.13321754 -2.1129999
-0.0083297212 0.13321754 -2.1129999
-0.0049024876 0.13321754 -2.1129999
-0.0014752542 0.13321754 -2.1129999
0.0019519794 0.13321754 -2.1129999
0.005379213 0.13321754 -2.1129999
0.0088064466 0.13321754 -2.1129999
0.01223368 0.13321754 -2.1129999
0.015660914 0.13321754 -2.1129999
0.019088147 0.13321754 -2.1129999
0.022515381 0.13321754 -2.1129999
0.025942614 0.13321754 -2.1129999
0.029369848 0.13321754 -2.1129999
0.03279708 0.13321754 -2.1129999
0.036224313 0.13321754 -2.1129999
0.039782908 0.13365887 -2.1199999
0.043221492 0.13365887 -2.1199999
0.046660081 0.13365887 -2.1199999
0.050098669 0.13365887 -2.1199999
0.053537257 0.13365887 -2.1199999
0.056975842 0.13365887 -2.1199999
0.06041443 0.13365887 -2.1199999
0.063853018 0.13365887 -2.1199999
0.067513801 0.1341002 -2.1270001
0.07096374 0.1341002 -2.1270001
0.074413687 0.1341002 -2.1270001
0.077863626 0.1341002 -2.1270001
0.081313565 0.1341002 -2.1270001
0.085042462 0.13454153 -2.1340001
0.088503763 0.13454153 -2.1340001
0.091965057 0.13454153 -2.1340001
0.095426351 0.13454153 -2.1340001
0.098887645 0.13454153 -2.1340001
0.10234894 0.13454153 -2.1340001
0.10620689 0.1350459 -2.142
0.10968117 0.1350459 -2.142
0.11315544 0.1350459 -2.142
0.1166297 0.1350459 -2.142
0.12010398 0.1350459 -2.142
0.12357825 0.1350459 -2.142
0.12705252 0.1350459 -2.142
0.1305268 0.1350459 -2.142
0.13400106 0.1350459 -2.142
0.13747533 0.1350459 -2.142
0.14094961 0.1350459 -2.142
0.14442387 0.1350459 -2.142
0.14789815 0.1350459 -2.142
0.15137242 0.1350459 -2.142
0.15535273 0.13548721 -2.1489999
0.15883835 0.13548721 -2.1489999
0.16232397 0.13548721 -2.1489999
0.1658096 0.13548721 -2.1489999
0.16992547 0.1359916 -2.1570001
0.17398687 0.13643293 -2.164
0.17749682 0.13643293 -2.164
0.18100677 0.13643293 -2.164
0.18451673 0.13643293 -2.164
0.18802668 0.13643293 -2.164
0.19153664 0.13643293 -2.164
0.19504659 0.13643293 -2.164
0.19855654 0.13643293 -2.164
0.20281349 0.13693729 -2.1719999
0.20633642 0.13693729 -2.1719999
0.20985936 0.13693729 -2.1719999
0.21338229 0.13693729 -2.1719999
0.21690522 0.13693729 -2.1719999
0.22042815 0.13693729 -2.1719999
0.22395107 0.13693729 -2.1719999
0.227474 0.13693729 -2.1719999
0.23099694 0.13693729 -2.1719999
0.23451987 0.13693729 -2.1719999
0.2380428 0.13693729 -2.1719999
0.24156573 0.13693729 -2.1719999
0.24508867 0.13693729 -2.1719999
0.24861158 0.13693729 -2.1719999
0.25213453 0.13693729 -2.1719999
0.25565746 0.13693729 -2.1719999
0.25918037 0.13693729 -2.1719999
0.2627033 0.13693729 -2.1719999
0.26524568 0.13643293 -2.164
0.26875564 0.13643293 -2.164
0.27138487 0.1359916 -2.1570001
0.27488348 0.1359916 -2.1570001
0.27928549 0.13643293 -2.164
0.28279546 0.13643293 -2.164
0.2863054 0.13643293 -2.164
0.28981537 0.13643293 -2.164
0.2933253 0.13643293 -2.164
0.29683527 0.13643293 -2.164
0.30034521 0.13643293 -2.164
0.30385518 0.13643293 -2.164
0.30736512 0.13643293 -2.164
0.3098695 0.1359916 -2.1570001
0.31336808 0.1359916 -2.1570001
0.3168667 0.1359916 -2.1570001
0.31917709 0.13548721 -2.1489999
0.32266271 0.13548721 -2.1489999
0.32614833 0.13548721 -2.1489999
0.32856023 0.1350459 -2.142
0.3320345 0.1350459 -2.142
0.33206284 0.13365887 -2.1199999
0.3355014 0.13365887 -2.1199999
0.33430359 0.13183053 -2.0910001
0.33430362 0.13050653 -2.0699999
0.33766112 0.13050653 -2.0699999
0.33541736 0.12836295 -2.036
0.3387197 0.12836295 -2.036
0.33664644 0.12634546 -2.0039999
0.33328211 0.12388664 -1.965
0.33646929 0.12388664 -1.965
0.33343378 0.12161697 -1.929
0.33656254 0.12161697 -1.929
0.33247137 0.11903206 -1.888
0.32753631 0.11619496 -1.8430001
0.33052561 0.11619496 -1.8430001
0.3286289 0.11449269 -1.816
0.33157441 0.11449269 -1.816
0.33065155 0.11316871 -1.795
0.32873145 0.11152951 -1.7690001
0.33160073 0.11152951 -1.7690001
0.3316339 0.1105838 -1.7539999
0.33371606 0.11033162 -1.75
0.33366978 0.10938592 -1.735
0.33279905 0.10818803 -1.716
0.33558238 0.10818803 -1.716
0.33560511 0.10730538 -1.702
0.33458844 0.10610749 -1.683
0.33731821 0.10610749 -1.683
0.33641112 0.10497265 -1.665
0.33911172 0.10497265 -1.665
0.33729586 0.10358562 -1.643
0.33561555 0.10226165 -1.622
0.33824641 0.10226165 -1.622
0.33478266 0.1004333 -1.5930001
0.33736646 0.1004333 -1.5930001
0.33312139 0.098415799 -1.561
0.33307299 0.097659245 -1.549
0.33298567 0.096902676 -1.5369999
0.32980368 0.095263474 -1.511
0.33225447 0.095263474 -1.511
0.33071807 0.094128631 -1.493
0.33157772 0.093687303 -1.4859999
0.33084139 0.092804648 -1.472
0.32938051 0.09173286 -1.455
0.3317405 0.09173286 -1.455
0.33019686 0.090661064 -1.438
0.33252928 0.090661064 -1.438
0.33183441 0.089841455 -1.425
0.33109736 0.089021847 -1.4119999
0.33338758 0.089021847 -1.4119999
0.33258733 0.088202253 -1.399
0.33102679 0.087193504 -1.383
0.33326998 0.087193504 -1.383
0.33114642 0.086058661 -1.365
0.3333604 0.086058661 -1.365
0.33262432 0.085302107 -1.353
0.33135432 0.084419444 -1.339
0.33352616 0.084419444 -1.339
0.33268949 0.08366289 -1.327
0.33484185 0.08366289 -1.327
0.33496261 0.083158515 -1.319
0.33480179 0.082591094 -1.3099999
0.33692658 0.082591094 -1.3099999
0.33568677 0.081771493 -1.2970001
0.33779049 0.081771493 -1.2970001
0.33779767 0.081267118 -1.289
0.33698788 0.080573604 -1.278
0.33906075 0.080573604 -1.278
0.33846438 0.079943135 -1.268
0.34052104 0.079943135 -1.268
0.33960581 0.07924962 -1.257
0.32775927 0.071747072 -1.138
0.32641909 0.071053557 -1.127
0.32358691 0.070044808 -1.1109999
0.32538894 0.070044808 -1.1109999
0.32365695 0.069288254 -1.099
0.32543948 0.069288254 -1.099
0.32454234 0.06872084 -1.09
0.32391536 0.068216465 -1.082
0.32567033 0.068216465 -1.082
0.32530704 0.067775138 -1.075
0.32705066 0.067775138 -1.075
0.32634744 0.067270763 -1.067
0.32654071 0.066955529 -1.062
0.32826325 0.066955529 -1.062
0.32750002 0.066451155 -1.054
0.32702318 0.066009834 -1.0470001
0.32872137 0.066009834 -1.0470001
0.32821044 0.065568499 -1.04
0.32989731 0.065568499 -1.04
0.32935235 0.065127179 -1.033
0.32910514 0.064748891 -1.027
0.33077091 0.064748891 -1.027
0.33017081 0.06430757 -1.02
0.33182523 0.06430757 -1.02
0.33119106 0.063866243 -1.013
0.33086273 0.063487962 -1.007
0.33249605 0.063487962 -1.007
0.33180675 0.063046642 -1
0.33342871 0.063046642 -1
0.33237028 0.062542267 -0.99199998
0.33094922 0.061974842 -0.98299998
0.33254364 0.061974842 -0.98299998
0.33209854 0.061596565 -0.977
0.33368319 0.061596565 -0.977
0.33183628 0.060966101 -0.96700001
0.32995689 0.060335632 -0.95700002
0.33150914 0.060335632 -0.95700002
0.32992911 0.059768215 -0.94800001
0.33146676 0.059768215 -0.94800001
0.32949167 0.059137747 -0.93800002
0.32818994 0.058633372 -0.93000001
0.32969838 0.058633372 -0.93000001
0.32835773 0.058129001 -0.92199999
0.32985318 0.058129001 -0.92199999
0.32811424 0.05756158 -0.91299999
0.32670707 0.057057206 -0.90499997
0.32817495 0.057057206 -0.90499997
0.32745737 0.056678928 -0.89899999
0.32891554 0.056678928 -0.89899999
0.32780126 0.056237601 -0.89200002
0.32703337 0.05585932 -0.88599998
0.32847044 0.05585932 -0.88599998
0.32841811 0.055607136 -0.88200003
0.32984871 0.055607136 -0.88200003
0.32940125 0.055291899 -0.87699997
0.32893762 0.054976668 -0.87199998
0.33035198 0.054976668 -0.87199998
0.32948357 0.054598387 -0.866
0.33088818 0.054598387 -0.866
0.33037427 0.054283157 -0.861
0.3294588 0.053904876 -0.85500002
0.33084559 0.053904876 -0.85500002
0.33028951 0.053589642 -0.85000002
0.33166817 0.053589642 -0.85000002
0.33069593 0.053211361 -0.84399998
0.3293108 0.052770037 -0.83700001
0.33066839 0.052770037 -0.83700001
0.32924917 0.05232871 -0.82999998
0.3305954 0.05232871 -0.82999998
0.32954207 0.051950429 -0.824
0.32806772 0.051509101 -0.81699997
0.32939285 0.051509101 -0.81699997
0.32828924 0.051130824 -0.81099999
0.32960469 0.051130824 -0.81099999
0.32887989 0.05081559 -0.80599999
0.32772925 0.050437313 -0.80000001
0.32902682 0.050437313 -0.80000001
0.32825989 0.050122079 -0.79500002
0.32954934 0.050122079 -0.79500002
0.3283419 0.049743794 -0.78899997
0.3275328 0.049428564 -0.78399998
0.32880443 0.049428564 -0.78399998
0.32797098 0.049113329 -0.77899998
0.32923448 0.049113329 -0.77899998
0.32880098 0.048861142 -0.77499998
0.32878038 0.048672006 -0.77200001
0.33003253 0.048672006 -0.77200001
0.32913908 0.048356771 -0.76700002
0.33038312 0.048356771 -0.76700002
0.32946536 0.048041541 -0.76200002
0.32896534 0.047789354 -0.75800002
0.33019477 0.047789354 -0.75800002
0.32967529 0.047537167 -0.75400001
0.33089826 0.047537167 -0.75400001
0.33035931 0.047284979 -0.75
0.32980737 0.047032792 -0.74599999
0.33101737 0.047032792 -0.74599999
0.33000064 0.046717558 -0.741
0.33120254 0.046717558 -0.741
0.33016148 0.046402324 -0.736
0.32955441 0.046150137 -0.73199999
0.33074167 0.046150137 -0.73199999
0.32920825 0.04577186 -0.72600001
0.3303858 0.04577186 -0.72600001
0.32927987 0.045456626 -0.72100002
0.32815772 0.045141395 -0.71600002
0.32931903 0.045141395 -0.71600002
0.32817256 0.044826161 -0.71100003
0.3293258 0.044826161 -0.71100003
0.32769012 0.04444788 -0.70499998
0.32650149 0.044132646 -0.69999999
0.32763687 0.044132646 -0.69999999
0.32689354 0.043880459 -0.69599998
0.32802242 0.043880459 -0.69599998
0.32725966 0.043628272 -0.69199997
0.32600936 0.043313038 -0.68699998
0.32712364 0.043313038 -0.68699998
0.32632685 0.043060854 -0.68300003
0.32743466 0.043060854 -0.68300003
0.32661834 0.042808667 -0.67900002
0.32578906 0.04255648 -0.67500001
0.32688388 0.04255648 -0.67500001
0.32603514 0.042304296 -0.671
0.32712349 0.042304296 -0.671
0.32674441 0.042115152 -0.66799998
0.32635561 0.041926015 -0.66500002
0.32743424 0.041926015 -0.66500002
0.32653683 0.041673828 -0.66100001
0.32760894 0.041673828 -0.66100001
0.32669207 0.041421641 -0.65700001
0.3262611 0.0412325 -0.65399998
0.32732186 0.0412325 -0.65399998
0.32687631 0.041043364 -0.65100002
0.32793221 0.041043364 -0.65100002
0.32747203 0.040854223 -0.648
0.32700214 0.040665079 -0.64499998
0.32804832 0.040665079 -0.64499998
0.32756382 0.040475942 -0.64200002
0.32860515 0.040475942 -0.64200002
-0.49814332 0.13433607 -2.187
-0.49459603 0.13433607 -2.187
-0.48925251 0.13384466 -2.1789999
-0.48571822 0.13384466 -2.1789999
-0.48218393 0.13384466 -2.1789999
-0.47864965 0.13384466 -2.1789999
-0.47511536 0.13384466 -2.1789999
-0.4715811 0.13384466 -2.1789999
-0.46804681 0.13384466 -2.1789999
-0.46451253 0.13384466 -2.1789999
-0.46097824 0.13384466 -2.1789999
-0.45912343 0.13433607 -2.187
-0.45557618 0.13433607 -2.187
-0.45202893 0.13433607 -2.187
-0.44848168 0.13433607 -2.187
-0.44656193 0.13482746 -2.1949999
-0.44300172 0.13482746 -2.1949999
-0.43944147 0.13482746 -2.1949999
-0.43588123 0.13482746 -2.1949999
-0.4336997 0.13525744 -2.2019999
-0.43169081 0.13574885 -2.21
-0.42810625 0.13574885 -2.21
-0.42452168 0.13574885 -2.21
-0.42093712 0.13574885 -2.21
-0.41735256 0.13574885 -2.21
-0.41376799 0.13574885 -2.21
-0.41018343 0.13574885 -2.21
-0.40512699 0.13525744 -2.2019999
-0.40155539 0.13525744 -2.2019999
-0.39671865 0.13482746 -2.1949999
-0.39172551 0.13433607 -2.187
-0.38817826 0.13433607 -2.187
-0.38322398 0.13384466 -2.1789999
-0.37968969 0.13384466 -2.1789999
-0.37494704 0.13341469 -2.1719999
-0.37005609 0.13292331 -2.164
-0.36654612 0.13292331 -2.164
-0.36303616 0.13292331 -2.164
-0.35836324 0.13249333 -2.1570001
-0.35486466 0.13249333 -2.1570001
-0.35136604 0.13249333 -2.1570001
-0.34786743 0.13249333 -2.1570001
-0.34436885 0.13249333 -2.1570001
-0.34087023 0.13249333 -2.1570001
-0.33737165 0.13249333 -2.1570001
-0.33387303 0.13249333 -2.1570001
-0.33037445 0.13249333 -2.1570001
-0.32793662 0.13292331 -2.164
-0.32442668 0.13292331 -2.164
-0.32091671 0.13292331 -2.164
-0.31740677 0.13292331 -2.164
-0.31288144 0.13249333 -2.1570001
-0.30938283 0.13249333 -2.1570001
-0.30588424 0.13249333 -2.1570001
-0.30126411 0.13200192 -2.1489999
-0.29777849 0.13200192 -2.1489999
-0.29333425 0.13157195 -2.142
-0.28985998 0.13157195 -2.142
-0.28638572 0.13157195 -2.142
-0.28093028 0.13065058 -2.1270001
-0.27748033 0.13065058 -2.1270001
-0.27403042 0.13065058 -2.1270001
-0.26879948 0.12979063 -2.1129999
-0.26537225 0.12979063 -2.1129999
-0.26095328 0.12929924 -2.105
-0.2566826 0.12886927 -2.098
-0.25327969 0.12886927 -2.098
-0.24987678 0.12886927 -2.098
-0.24647388 0.12886927 -2.098
-0.24307097 0.12886927 -2.098
-0.23966807 0.12886927 -2.098
-0.23705347 0.12929924 -2.105
-0.23363921 0.12929924 -2.105
-0.23022495 0.12929924 -2.105
-0.22767267 0.12979063 -2.1129999
-0.22424543 0.12979063 -2.1129999
-0.22081821 0.12979063 -2.1129999
-0.21739097 0.12979063 -2.1129999
-0.21467255 0.13022059 -2.1199999
-0.21262893 0.13108055 -2.1340001
-0.20916763 0.13108055 -2.1340001
-0.20647748 0.13157195 -2.142
-0.20300321 0.13157195 -2.142
-0.19952895 0.13157195 -2.142
-0.19669537 0.13200192 -2.1489999
-0.19392902 0.13249333 -2.1570001
-0.19043042 0.13249333 -2.1570001
-0.1869318 0.13249333 -2.1570001
-0.1834332 0.13249333 -2.1570001
-0.18051854 0.13292331 -2.164
-0.17700858 0.13292331 -2.164
-0.17349863 0.13292331 -2.164
-0.16998868 0.13292331 -2.164
-0.16647872 0.13292331 -2.164
-0.16244161 0.13249333 -2.1570001
-0.158943 0.13249333 -2.1570001
-0.1554444 0.13249333 -2.1570001
-0.15138225 0.13200192 -2.1489999
-0.14789662 0.13200192 -2.1489999
-0.14394061 0.13157195 -2.142
-0.14046633 0.13157195 -2.142
-0.13699207 0.13157195 -2.142
-0.13301913 0.13108055 -2.1340001
-0.12955783 0.13108055 -2.1340001
-0.12609655 0.13108055 -2.1340001
-0.12263525 0.13108055 -2.1340001
-0.11917395 0.13108055 -2.1340001
-0.11571266 0.13108055 -2.1340001
-0.11225136 0.13108055 -2.1340001
-0.10879007 0.13108055 -2.1340001
-0.10532878 0.13108055 -2.1340001
-0.10224935 0.13157195 -2.142
-0.098775089 0.13157195 -2.142
-0.095300816 0.13157195 -2.142
-0.091826543 0.13157195 -2.142
-0.08835227 0.13157195 -2.142
-0.084878005 0.13157195 -2.142
-0.081669755 0.13200192 -2.1489999
-0.078184128 0.13200192 -2.1489999
-0.074698508 0.13200192 -2.1489999
-0.07121288 0.13200192 -2.1489999
-0.06772726 0.13200192 -2.1489999
-0.064241633 0.13200192 -2.1489999
-0.060756009 0.13200192 -2.1489999
-0.057083834 0.13157195 -2.142
-0.053609565 0.13157195 -2.142
-0.049948048 0.13108055 -2.1340001
-0.046334267 0.13065058 -2.1270001
-0.042884327 0.13065058 -2.1270001
-0.039434385 0.13065058 -2.1270001
-0.035866015 0.13022059 -2.1199999
-0.032427426 0.13022059 -2.1199999
-0.028893122 0.12979063 -2.1129999
-0.025465889 0.12979063 -2.1129999
-0.022038655 0.12979063 -2.1129999
-0.018611422 0.12979063 -2.1129999
-0.015184188 0.12979063 -2.1129999
-0.011712442 0.12929924 -2.105
-0.0082981847 0.12929924 -2.105
-0.0048839268 0.12929924 -2.105
-0.0014696688 0.12929924 -2.105
0.0019445891 0.12929924 -2.105
0.0053588469 0.12929924 -2.105
0.0087731052 0.12929924 -2.105
0.012187363 0.12929924 -2.105
0.015601621 0.12929924 -2.105
0.019015878 0.12929924 -2.105
0.022430137 0.12929924 -2.105
0.025844395 0.12929924 -2.105
0.029258652 0.12929924 -2.105
0.032672912 0.12929924 -2.105
0.036224313 0.12979063 -2.1129999
0.039651547 0.12979063 -2.1129999
0.04307878 0.12979063 -2.1129999
0.046506014 0.12979063 -2.1129999
0.050098669 0.13022059 -2.1199999
0.053537257 0.13022059 -2.1199999
0.056975842 0.13022059 -2.1199999
0.06041443 0.13022059 -2.1199999
0.063853018 0.13022059 -2.1199999
0.067291602 0.13022059 -2.1199999
0.070730194 0.13022059 -2.1199999
0.074413687 0.13065058 -2.1270001
0.077863626 0.13065058 -2.1270001
0.081313565 0.13065058 -2.1270001
0.085042462 0.13108055 -2.1340001
0.088503763 0.13108055 -2.1340001
0.091965057 0.13108055 -2.1340001
0.095426351 0.13108055 -2.1340001
0.098887645 0.13108055 -2.1340001
0.10234894 0.13108055 -2.1340001
0.10620689 0.13157195 -2.142
0.10968117 0.13157195 -2.142
0.11315544 0.13157195 -2.142
0.1166297 0.13157195 -2.142
0.12010398 0.13157195 -2.142
0.12357825 0.13157195 -2.142
0.12705252 0.13157195 -2.142
0.1305268 0.13157195 -2.142
0.13400106 0.13157195 -2.142
0.13747533 0.13157195 -2.142
0.14094961 0.13157195 -2.142
0.14442387 0.13157195 -2.142
0.14789815 0.13157195 -2.142
0.15137242 0.13157195 -2.142
0.15535273 0.13200192 -2.1489999
0.15883835 0.13200192 -2.1489999
0.16232397 0.13200192 -2.1489999
0.1658096 0.13200192 -2.1489999
0.16929522 0.13200192 -2.1489999
0.17342407 0.13249333 -2.1570001
0.17692266 0.13249333 -2.1570001
0.18042126 0.13249333 -2.1570001
0.18451673 0.13292331 -2.164
0.18802668 0.13292331 -2.164
0.19153664 0.13292331 -2.164
0.19504659 0.13292331 -2.164
0.19855654 0.13292331 -2.164
0.20281349 0.13341469 -2.1719999
0.20633642 0.13341469 -2.1719999
0.20985936 0.13341469 -2.1719999
0.21338229 0.13341469 -2.1719999
0.21690522 0.13341469 -2.1719999
0.22042815 0.13341469 -2.1719999
0.22395107 0.13341469 -2.1719999
0.227474 0.13341469 -2.1719999
0.23099694 0.13341469 -2.1719999
0.23451987 0.13341469 -2.1719999
0.2380428 0.13341469 -2.1719999
0.24156573 0.13341469 -2.1719999
0.24508867 0.13341469 -2.1719999
0.24861158 0.13341469 -2.1719999
0.25213453 0.13341469 -2.1719999
0.25565746 0.13341469 -2.1719999
0.25918037 0.13341469 -2.1719999
0.26173574 0.13292331 -2.164
0.26524568 0.13292331 -2.164
0.26875564 0.13292331 -2.164
0.27138487 0.13249333 -2.1570001
0.27488348 0.13249333 -2.1570001
0.27838209 0.13249333 -2.1570001
0.28188068 0.13249333 -2.1570001
0.2863054 0.13292331 -2.164
0.28981537 0.13292331 -2.164
0.29237649 0.13249333 -2.1570001
0.29587507 0.13249333 -2.1570001
0.29937369 0.13249333 -2.1570001
0.30174896 0.13200192 -2.1489999
0.30523458 0.13200192 -2.1489999
0.3087202 0.13200192 -2.1489999
0.31220582 0.13200192 -2.1489999
0.31466314 0.13157195 -2.142
0.31813741 0.13157195 -2.142
0.3216117 0.13157195 -2.142
0.32508597 0.13157195 -2.142
0.32733312 0.13108055 -2.1340001
0.33079442 0.13108055 -2.1340001
0.33096638 0.12979063 -2.1129999
0.33439362 0.12979063 -2.1129999
0.33430359 0.12843929 -2.0910001
0.33317313 0.12671939 -2.063
0.33651927 0.12671939 -2.063
0.33442888 0.12469237 -2.03
0.3377215 0.12469237 -2.03
0.33446261 0.12229681 -1.9910001
0.33328211 0.12069976 -1.965
0.33646929 0.12069976 -1.965
0.33239666 0.11811992 -1.923
0.33551571 0.11811992 -1.923
0.33247137 0.11597005 -1.888
0.3284249 0.11351306 -1.848
0.3314223 0.11351306 -1.848
0.33061948 0.11222313 -1.827
0.33358285 0.11222313 -1.827
0.33157259 0.11056466 -1.8
0.33170471 0.10964329 -1.785
0.33459994 0.10964329 -1.785
0.33352464 0.10835338 -1.7640001
0.33371606 0.10749342 -1.75
0.33655453 0.10749342 -1.75
0.33551422 0.10626493 -1.73
0.33832023 0.10626493 -1.73
0.33836567 0.10540498 -1.716
0.33737171 0.10423791 -1.697
0.34012419 0.10423791 -1.697
0.33923981 0.10313226 -1.679
0.34196311 0.10313226 -1.679
0.33914348 0.10147379 -1.652
0.33561555 0.099631049 -1.622
0.33824641 0.099631049 -1.622
0.33478266 0.097849734 -1.5930001
0.33736646 0.097849734 -1.5930001
0.33141416 0.095392734 -1.553
0.33393309 0.095392734 -1.553
0.32973596 0.093488567 -1.522
0.32740271 0.092137225 -1.5
0.32983568 0.092137225 -1.5
0.3282814 0.091031574 -1.482
0.33068517 0.091031574 -1.482
0.32836905 0.089741655 -1.461
0.32847497 0.089127406 -1.451
0.33082846 0.089127406 -1.451
0.32927838 0.088083185 -1.434
0.3316043 0.088083185 -1.434
0.33183441 0.08753036 -1.425
0.33180085 0.086916111 -1.415
0.33409593 0.086916111 -1.415
0.3333005 0.086117588 -1.402
0.33174488 0.085134797 -1.386
0.33399293 0.085134797 -1.386
0.3333298 0.084397689 -1.374
0.33555838 0.084397689 -1.374
0.33409935 0.08347632 -1.359
0.33333406 0.082739227 -1.347
0.33551884 0.082739227 -1.347
0.33494586 0.082063548 -1.336
0.33711281 0.082063548 -1.336
0.33623236 0.081326455 -1.324
0.33556852 0.080650777 -1.313
0.33769819 0.080650777 -1.313
0.33698085 0.079975113 -1.302
0.33909267 0.079975113 -1.302
0.33832181 0.079299435 -1.291
0.33777893 0.078685187 -1.281
0.33985668 0.078685187 -1.281
0.33899823 0.078009516 -1.27
0.34105814 0.078009516 -1.27
0.33960581 0.077210993 -1.257
0.33892667 0.076596744 -1.247
0.3409493 0.076596744 -1.247
0.32236418 0.06836582 -1.113
0.32009184 0.067505866 -1.099
0.32187438 0.067505866 -1.099
0.32041743 0.066830203 -1.0880001
0.32218215 0.066830203 -1.0880001
0.32156488 0.0663388 -1.08
0.32181978 0.06603168 -1.075
0.32356343 0.06603168 -1.075
0.32288614 0.065540276 -1.067
0.32461679 0.065540276 -1.067
0.32481816 0.065233156 -1.062
0.32469583 0.064864606 -1.056
0.32640862 0.064864606 -1.056
0.32656783 0.064557478 -1.051
0.32702318 0.06431178 -1.0470001
0.32777947 0.064127505 -1.044
0.32726368 0.063697532 -1.0369999
0.32894567 0.063697532 -1.0369999
0.32903352 0.063390404 -1.0319999
0.32846424 0.062960431 -1.025
0.33012676 0.062960431 -1.025
0.32952341 0.062530458 -1.018
0.33117458 0.062530458 -1.018
0.3308641 0.062161911 -1.012
0.33020559 0.061731938 -1.005
0.33183569 0.061731938 -1.005
0.33081132 0.061240539 -0.99699998
0.33242843 0.061240539 -0.99699998
0.33136514 0.060749143 -0.98900002
0.33027589 0.060257744 -0.98100001
0.33186704 0.060257744 -0.98100001
0.33141872 0.059889194 -0.97500002
0.33300012 0.059889194 -0.97500002
0.33149311 0.059336372 -0.96600002
0.32995689 0.05878355 -0.95700002
0.33150914 0.05878355 -0.95700002
0.32992911 0.058230724 -0.94800001
0.33146676 0.058230724 -0.94800001
0.32949167 0.057616476 -0.93800002
0.32818994 0.057125077 -0.93000001
0.32969838 0.057125077 -0.93000001
0.32835773 0.056633677 -0.92199999
0.32985318 0.056633677 -0.92199999
0.32811424 0.056080855 -0.91299999
0.32670707 0.055589456 -0.90499997
0.32817495 0.055589456 -0.90499997
0.32745737 0.055220906 -0.89899999
0.32891554 0.055220906 -0.89899999
0.32780126 0.054790936 -0.89200002
0.32703337 0.054422382 -0.88599998
0.32847044 0.054422382 -0.88599998
0.32804573 0.054115262 -0.88099998
0.32947469 0.054115262 -0.88099998
0.32940125 0.05386956 -0.87699997
0.32856041 0.053501014 -0.87099999
0.32997313 0.053501014 -0.87099999
0.32948357 0.05319389 -0.866
0.33088818 0.05319389 -0.866
0.32999057 0.052825343 -0.86000001
0.3294588 0.052518219 -0.85500002
0.33084559 0.052518219 -0.85500002
0.33028951 0.052211095 -0.85000002
0.33166817 0.052211095 -0.85000002
0.33069593 0.051842541 -0.84399998
0.32970423 0.051473994 -0.838
0.33106345 0.051473994 -0.838
0.32964584 0.051044017 -0.83099997
0.33099371 0.051044017 -0.83099997
0.32994199 0.05067547 -0.82499999
0.32846928 0.050245497 -0.81800002
0.32979605 0.050245497 -0.81800002
0.32869405 0.049876947 -0.81199998
0.33001107 0.049876947 -0.81199998
0.32887989 0.0495084 -0.80599999
0.32772925 0.049139854 -0.80000001
0.32902682 0.049139854 -0.80000001
0.32825989 0.048832729 -0.79500002
0.32954934 0.048832729 -0.79500002
0.3283419 0.048464175 -0.78899997
0.32711503 0.048095629 -0.78299999
0.32838503 0.048095629 -0.78299999
0.32754996 0.047788505 -0.778
0.32881185 0.047788505 -0.778
0.32837671 0.047542807 -0.77399999
0.32835451 0.047358535 -0.77100003
0.32960504 0.047358535 -0.77100003
0.32870993 0.047051407 -0.76599997
0.32995236 0.047051407 -0.76599997
0.32946536 0.04680571 -0.76200002
0.32853132 0.046498585 -0.75700003
0.32975918 0.046498585 -0.75700003
0.32923806 0.046252888 -0.75300002
0.33045942 0.046252888 -0.75300002
0.32991883 0.046007186 -0.74900001
0.32980737 0.045822911 -0.74599999
0.33101737 0.045822911 -0.74599999
0.3295553 0.045454364 -0.74000001
0.33075556 0.045454364 -0.74000001
0.3297129 0.04514724 -0.73500001
0.32910419 0.044901539 -0.73100001
0.33028987 0.044901539 -0.73100001
0.32920825 0.044594415 -0.72600001
0.3303858 0.044594415 -0.72600001
0.32927987 0.04428729 -0.72100002
0.32815772 0.04398017 -0.71600002
0.32931903 0.04398017 -0.71600002
0.32771096 0.043611616 -0.70999998
0.32886258 0.043611616 -0.70999998
0.32769012 0.043304492 -0.70499998
0.32603505 0.042935945 -0.699
0.32716882 0.042935945 -0.699
0.32642388 0.042690247 -0.69499999
0.32755116 0.042690247 -0.69499999
0.32678673 0.042444546 -0.69099998
0.32553482 0.042137422 -0.68599999
0.32664749 0.042137422 -0.68599999
0.32584903 0.041891724 -0.68199998
0.32695523 0.041891724 -0.68199998
0.32613727 0.041646022 -0.67799997
0.32530642 0.041400325 -0.67400002
0.32639962 0.041400325 -0.67400002
0.32603514 0.041216049 -0.671
0.32712349 0.041216049 -0.671
0.32674441 0.041031774 -0.66799998
0.32586485 0.040786076 -0.66399997
0.32694182 0.040786076 -0.66399997
0.32653683 0.040601805 -0.66100001
0.32760894 0.040601805 -0.66100001
0.32669207 0.040356103 -0.65700001
0.32576224 0.040110402 -0.653
0.32682139 0.040110402 -0.653
0.32637417 0.039926127 -0.64999998
0.32742846 0.039926127 -0.64999998
0.3269667 0.039741855 -0.64700001
0.32649517 0.03955758 -0.64399999
0.32753971 0.03955758 -0.64399999
0.32756382 0.039434731 -0.64200002
0.32860515 0.039434731 -0.64200002
-0.49985537 0.13031071 -2.1789999
-0.49472666 0.1298921 -2.1719999
-0.49120373 0.1298921 -2.1719999
-0.48768079 0.1298921 -2.1719999
-0.48415786 0.1298921 -2.1719999
-0.48063493 0.1298921 -2.1719999
-0.477112 0.1298921 -2.1719999
-0.47358909 0.1298921 -2.1719999
-0.47006616 0.1298921 -2.1719999
-0.46654323 0.1298921 -2.1719999
-0.46302029 0.1298921 -2.1719999
-0.45949736 0.1298921 -2.1719999
-0.45597443 0.1298921 -2.1719999
-0.4524515 0.1298921 -2.1719999
-0.44892856 0.1298921 -2.1719999
-0.44540563 0.1298921 -2.1719999
-0.4418827 0.1298921 -2.1719999
-0.43977255 0.13031071 -2.1789999
-0.4378399 0.13078915 -2.187
-0.43429261 0.13078915 -2.187
-0.43074536 0.13078915 -2.187
-0.42876077 0.13126756 -2.1949999
-0.42520052 0.13126756 -2.1949999
-0.42164031 0.13126756 -2.1949999
-0.41808006 0.13126756 -2.1949999
-0.41451982 0.13126756 -2.1949999
-0.41227016 0.13168618 -2.2019999
-0.40869856 0.13168618 -2.2019999
-0.40659887 0.13216461 -2.21
-0.4030143 0.13216461 -2.21
-0.39671865 0.13126756 -2.1949999
-0.39315841 0.13126756 -2.1949999
-0.38959819 0.13126756 -2.1949999
-0.38463098 0.13078915 -2.187
-0.38108373 0.13078915 -2.187
-0.37494704 0.1298921 -2.1719999
-0.37142411 0.1298921 -2.1719999
-0.36790118 0.1298921 -2.1719999
-0.36437824 0.1298921 -2.1719999
-0.36085531 0.1298921 -2.1719999
-0.35733238 0.1298921 -2.1719999
-0.35250631 0.12941368 -2.164
-0.34899634 0.12941368 -2.164
-0.3454864 0.12941368 -2.164
-0.34197643 0.12941368 -2.164
-0.3384665 0.12941368 -2.164
-0.33495653 0.12941368 -2.164
-0.33144659 0.12941368 -2.164
-0.32914895 0.1298921 -2.1719999
-0.32562602 0.1298921 -2.1719999
-0.32210308 0.1298921 -2.1719999
-0.31858015 0.1298921 -2.1719999
-0.31505722 0.1298921 -2.1719999
-0.31153429 0.1298921 -2.1719999
-0.3068769 0.12941368 -2.164
-0.30238563 0.12899506 -2.1570001
-0.29888704 0.12899506 -2.1570001
-0.29429287 0.12851663 -2.1489999
-0.28985998 0.128098 -2.142
-0.28638572 0.128098 -2.142
-0.28185484 0.12761958 -2.1340001
-0.27839354 0.12761958 -2.1340001
-0.27403042 0.12720096 -2.1270001
-0.26968995 0.12678233 -2.1199999
-0.26625136 0.12678233 -2.1199999
-0.26194501 0.12636371 -2.1129999
-0.257539 0.12588529 -2.105
-0.25412476 0.12588529 -2.105
-0.25071049 0.12588529 -2.105
-0.24729624 0.12588529 -2.105
-0.24388199 0.12588529 -2.105
-0.24046773 0.12588529 -2.105
-0.23705347 0.12588529 -2.105
-0.23363921 0.12588529 -2.105
-0.2310999 0.12636371 -2.1129999
-0.2284269 0.12678233 -2.1199999
-0.22498831 0.12678233 -2.1199999
-0.22154973 0.12678233 -2.1199999
-0.21811114 0.12678233 -2.1199999
-0.2153814 0.12720096 -2.1270001
-0.21262893 0.12761958 -2.1340001
-0.20916763 0.12761958 -2.1340001
-0.20647748 0.128098 -2.142
-0.20366661 0.12851663 -2.1489999
-0.20018099 0.12851663 -2.1489999
-0.19742762 0.12899506 -2.1570001
-0.19392902 0.12899506 -2.1570001
-0.19043042 0.12899506 -2.1570001
-0.1869318 0.12899506 -2.1570001
-0.1834332 0.12899506 -2.1570001
-0.18051854 0.12941368 -2.164
-0.17700858 0.12941368 -2.164
-0.17349863 0.12941368 -2.164
-0.16943881 0.12899506 -2.1570001
-0.16594021 0.12899506 -2.1570001
-0.16244161 0.12899506 -2.1570001
-0.15835349 0.12851663 -2.1489999
-0.15486787 0.12851663 -2.1489999
-0.15088914 0.128098 -2.142
-0.14741488 0.128098 -2.142
-0.14394061 0.128098 -2.142
-0.13994172 0.12761958 -2.1340001
-0.13648044 0.12761958 -2.1340001
-0.13301913 0.12761958 -2.1340001
-0.12913287 0.12720096 -2.1270001
-0.12568292 0.12720096 -2.1270001
-0.12223298 0.12720096 -2.1270001
-0.11878304 0.12720096 -2.1270001
-0.1153331 0.12720096 -2.1270001
-0.11188316 0.12720096 -2.1270001
-0.10843322 0.12720096 -2.1270001
-0.10498327 0.12720096 -2.1270001
-0.10186747 0.12761958 -2.1340001
-0.098775089 0.128098 -2.142
-0.095300816 0.128098 -2.142
-0.091826543 0.128098 -2.142
-0.08835227 0.128098 -2.142
-0.084878005 0.128098 -2.142
-0.081669755 0.12851663 -2.1489999
-0.078184128 0.12851663 -2.1489999
-0.074698508 0.12851663 -2.1489999
-0.07121288 0.12851663 -2.1489999
-0.06772726 0.12851663 -2.1489999
-0.064241633 0.12851663 -2.1489999
-0.060756009 0.12851663 -2.1489999
-0.057083834 0.128098 -2.142
-0.053609565 0.128098 -2.142
-0.050135292 0.128098 -2.142
-0.046334267 0.12720096 -2.1270001
-0.042884327 0.12720096 -2.1270001
-0.039434385 0.12720096 -2.1270001
-0.035866015 0.12678233 -2.1199999
-0.032427426 0.12678233 -2.1199999
-0.02898884 0.12678233 -2.1199999
-0.025550252 0.12678233 -2.1199999
-0.022038655 0.12636371 -2.1129999
-0.018611422 0.12636371 -2.1129999
-0.015184188 0.12636371 -2.1129999
-0.011712442 0.12588529 -2.105
-0.0082981847 0.12588529 -2.105
-0.0048839268 0.12588529 -2.105
-0.0014696688 0.12588529 -2.105
0.0019445891 0.12588529 -2.105
0.0053588469 0.12588529 -2.105
0.0087731052 0.12588529 -2.105
0.012187363 0.12588529 -2.105
0.015601621 0.12588529 -2.105
0.019015878 0.12588529 -2.105
0.022430137 0.12588529 -2.105
0.025844395 0.12588529 -2.105
0.029258652 0.12588529 -2.105
0.032672912 0.12588529 -2.105
0.036224313 0.12636371 -2.1129999
0.039651547 0.12636371 -2.1129999
0.04307878 0.12636371 -2.1129999
0.046506014 0.12636371 -2.1129999
0.050098669 0.12678233 -2.1199999
0.053537257 0.12678233 -2.1199999
0.056975842 0.12678233 -2.1199999
0.06041443 0.12678233 -2.1199999
0.063853018 0.12678233 -2.1199999
0.067291602 0.12678233 -2.1199999
0.070730194 0.12678233 -2.1199999
0.074413687 0.12720096 -2.1270001
0.077863626 0.12720096 -2.1270001
0.081313565 0.12720096 -2.1270001
0.085042462 0.12761958 -2.1340001
0.088503763 0.12761958 -2.1340001
0.091965057 0.12761958 -2.1340001
0.095426351 0.12761958 -2.1340001
0.098887645 0.12761958 -2.1340001
0.10273263 0.128098 -2.142
0.10620689 0.128098 -2.142
0.10968117 0.128098 -2.142
0.11315544 0.128098 -2.142
0.1166297 0.128098 -2.142
0.12010398 0.128098 -2.142
0.12357825 0.128098 -2.142
0.12705252 0.128098 -2.142
0.1305268 0.128098 -2.142
0.13400106 0.128098 -2.142
0.13747533 0.128098 -2.142
0.14094961 0.128098 -2.142
0.14442387 0.128098 -2.142
0.14789815 0.128098 -2.142
0.15137242 0.128098 -2.142
0.15535273 0.12851663 -2.1489999
0.15883835 0.12851663 -2.1489999
0.16232397 0.12851663 -2.1489999
0.1658096 0.12851663 -2.1489999
0.16929522 0.12851663 -2.1489999
0.17342407 0.12899506 -2.1570001
0.17692266 0.12899506 -2.1570001
0.18042126 0.12899506 -2.1570001
0.18451673 0.12941368 -2.164
0.18802668 0.12941368 -2.164
0.19153664 0.12941368 -2.164
0.19504659 0.12941368 -2.164
0.19855654 0.12941368 -2.164
0.20281349 0.1298921 -2.1719999
0.20633642 0.1298921 -2.1719999
0.20985936 0.1298921 -2.1719999
0.21338229 0.1298921 -2.1719999
0.21690522 0.1298921 -2.1719999
0.22042815 0.1298921 -2.1719999
0.22395107 0.1298921 -2.1719999
0.227474 0.1298921 -2.1719999
0.23099694 0.1298921 -2.1719999
0.23451987 0.1298921 -2.1719999
0.2380428 0.1298921 -2.1719999
0.24156573 0.1298921 -2.1719999
0.24508867 0.1298921 -2.1719999
0.24861158 0.1298921 -2.1719999
0.25213453 0.1298921 -2.1719999
0.25565746 0.1298921 -2.1719999
0.25918037 0.1298921 -2.1719999
0.26173574 0.12941368 -2.164
0.26524568 0.12941368 -2.164
0.26875564 0.12941368 -2.164
0.27138487 0.12899506 -2.1570001
0.27488348 0.12899506 -2.1570001
0.27838209 0.12899506 -2.1570001
0.28188068 0.12899506 -2.1570001
0.2863054 0.12941368 -2.164
0.28981537 0.12941368 -2.164
0.29237649 0.12899506 -2.1570001
0.29587507 0.12899506 -2.1570001
0.29937369 0.12899506 -2.1570001
0.30174896 0.12851663 -2.1489999
0.30523458 0.12851663 -2.1489999
0.3087202 0.12851663 -2.1489999
0.31220582 0.12851663 -2.1489999
0.31466314 0.128098 -2.142
0.31813741 0.128098 -2.142
0.3216117 0.128098 -2.142
0.32508597 0.128098 -2.142
0.32733312 0.12761958 -2.1340001
0.33079442 0.12761958 -2.1340001
0.33096638 0.12636371 -2.1129999
0.33439362 0.12636371 -2.1129999
0.33430359 0.12504806 -2.0910001
0.33317313 0.12337357 -2.063
0.33651927 0.12337357 -2.063
0.33442888 0.12140007 -2.03
0.3377215 0.12140007 -2.03
0.33446261 0.11906776 -1.9910001
0.33328211 0.11751288 -1.965
0.33646929 0.11751288 -1.965
0.33239666 0.11500115 -1.923
0.33551571 0.11500115 -1.923
0.33247137 0.11290805 -1.888
0.3284249 0.11051593 -1.848
0.3314223 0.11051593 -1.848
0.33061948 0.10926007 -1.827
0.33358285 0.10926007 -1.827
0.33249363 0.10794439 -1.8049999
0.33263385 0.10704735 -1.79
0.3355372 0.10704735 -1.79
0.33560443 0.10615031 -1.775
0.33447883 0.10489444 -1.7539999
0.33732378 0.10489444 -1.7539999
0.3374536 0.10405721 -1.74
0.34027582 0.10405721 -1.74
0.34014034 0.10316016 -1.725
0.33916095 0.1020239 -1.706
0.34192804 0.1020239 -1.706
0.34105822 0.10094745 -1.688
0.34379613 0.10094745 -1.688
0.33996466 0.099033751 -1.656
0.33644322 0.097239666 -1.626
0.33908057 0.097239666 -1.626
0.33478266 0.095266171 -1.5930001
0.33736646 0.095266171 -1.5930001
0.33141416 0.092874043 -1.553
0.33393309 0.092874043 -1.553
0.32973596 0.091020152 -1.522
0.32740271 0.089704484 -1.5
0.32983568 0.089704484 -1.5
0.3282814 0.088628031 -1.482
0.33068517 0.088628031 -1.482
0.32836905 0.087372169 -1.461
0.32847497 0.086774141 -1.451
0.33082846 0.086774141 -1.451
0.32927838 0.085757487 -1.434
0.3316043 0.085757487 -1.434
0.33183441 0.085219257 -1.425
0.33180085 0.084621228 -1.415
0.33409593 0.084621228 -1.415
0.3347269 0.08420261 -1.408
0.33413839 0.083484977 -1.396
0.33640268 0.083484977 -1.396
0.33478537 0.082528129 -1.38
0.33702371 0.082528129 -1.38
0.33704948 0.081989907 -1.3710001
0.33556122 0.081092849 -1.3559999
0.3377606 0.081092849 -1.3559999
0.3361994 0.080195807 -1.341
0.33837447 0.080195807 -1.341
0.33775607 0.07953798 -1.33
0.337102 0.078880146 -1.319
0.33924136 0.078880146 -1.319
0.33853376 0.078222312 -1.308
0.3406553 0.078222312 -1.308
0.33910799 0.077385068 -1.294
0.33777893 0.07660763 -1.281
0.33985668 0.07660763 -1.281
0.33979902 0.076129206 -1.273
0.34186378 0.076129206 -1.273
0.33960581 0.075172357 -1.257
0.33974206 0.074753739 -1.25
0.34176955 0.074753739 -1.25
0.32236418 0.06656073 -1.113
0.32009184 0.065723486 -1.099
0.32187438 0.065723486 -1.099
0.32041743 0.06506566 -1.0880001
0.32218215 0.06506566 -1.0880001
0.32156488 0.064587235 -1.08
0.32181978 0.064288221 -1.075
0.32356343 0.064288221 -1.075
0.32288614 0.06380979 -1.067
0.32461679 0.06380979 -1.067
0.32481816 0.063510776 -1.062
0.32469583 0.063151956 -1.056
0.32640862 0.063151956 -1.056
0.32656783 0.062852941 -1.051
0.32827252 0.062852941 -1.051
0.32777947 0.062434323 -1.044
0.32726368 0.062015697 -1.0369999
0.32894567 0.062015697 -1.0369999
0.32903352 0.061716683 -1.0319999
0.32846424 0.061298065 -1.025
0.33012676 0.061298065 -1.025
0.32952341 0.060879447 -1.018
0.33117458 0.060879447 -1.018
0.3308641 0.060520623 -1.012
0.33020559 0.060102005 -1.005
0.33183569 0.060102005 -1.005
0.33081132 0.05962358 -0.99699998
0.33242843 0.05962358 -0.99699998
0.33136514 0.05914516 -0.98900002
0.33027589 0.058666736 -0.98100001
0.33186704 0.058666736 -0.98100001
0.33141872 0.058307916 -0.97500002
0.33300012 0.058307916 -0.97500002
0.33149311 0.05776969 -0.96600002
0.32995689 0.057231463 -0.95700002
0.33150914 0.057231463 -0.95700002
0.32992911 0.056693237 -0.94800001
0.33146676 0.056693237 -0.94800001
0.32949167 0.056095205 -0.93800002
0.32818994 0.055616781 -0.93000001
0.32969838 0.055616781 -0.93000001
0.32835773 0.055138357 -0.92199999
0.32985318 0.055138357 -0.92199999
0.32811424 0.054600131 -0.91299999
0.32670707 0.054121707 -0.90499997
0.32817495 0.054121707 -0.90499997
0.32745737 0.053762887 -0.89899999
0.32891554 0.053762887 -0.89899999
0.32780126 0.053344268 -0.89200002
0.32703337 0.052985448 -0.88599998
0.32847044 0.052985448 -0.88599998
0.32804573 0.052686434 -0.88099998
0.32947469 0.052686434 -0.88099998
0.32940125 0.052447222 -0.87699997
0.32856041 0.052088406 -0.87099999
0.32997313 0.052088406 -0.87099999
0.32948357 0.051789388 -0.866
0.33088818 0.051789388 -0.866
0.32999057 0.051430572 -0.86000001
0.3294588 0.051131558 -0.85500002
0.33084559 0.051131558 -0.85500002
0.33028951 0.050832544 -0.85000002
0.33166817 0.050832544 -0.85000002
0.33108777 0.050533529 -0.84500003
0.32970423 0.050114907 -0.838
0.33106345 0.050114907 -0.838
0.33043924 0.049815893 -0.833
0.33179033 0.049815893 -0.833
0.33034194 0.049397267 -0.82599998
0.32846928 0.048918847 -0.81800002
0.32979605 0.048918847 -0.81800002
0.32869405 0.048560027 -0.81199998
0.33001107 0.048560027 -0.81199998
0.32928795 0.048261013 -0.80699998
0.32813892 0.047902197 -0.801
0.32943812 0.047902197 -0.801
0.32825989 0.047543377 -0.79500002
0.32954934 0.047543377 -0.79500002
0.3283419 0.047184557 -0.78899997
0.32711503 0.04682574 -0.78299999
0.32838503 0.04682574 -0.78299999
0.32754996 0.046526726 -0.778
0.32881185 0.046526726 -0.778
0.32837671 0.046287514 -0.77399999
0.32835451 0.046108108 -0.77100003
0.32960504 0.046108108 -0.77100003
0.32870993 0.04580909 -0.76599997
0.32995236 0.04580909 -0.76599997
0.32946536 0.045569882 -0.76200002
0.32853132 0.045270864 -0.75700003
0.32975918 0.045270864 -0.75700003
0.32923806 0.045031652 -0.75300002
0.33045942 0.045031652 -0.75300002
0.32991883 0.04479244 -0.74900001
0.32980737 0.04461303 -0.74599999
0.33101737 0.04461303 -0.74599999
0.3295553 0.044254214 -0.74000001
0.33075556 0.044254214 -0.74000001
0.3297129 0.043955199 -0.73500001
0.32910419 0.043715987 -0.73100001
0.33028987 0.043715987 -0.73100001
0.32920825 0.043416973 -0.72600001
0.3303858 0.043416973 -0.72600001
0.32927987 0.043117955 -0.72100002
0.32815772 0.042818941 -0.71600002
0.32931903 0.042818941 -0.71600002
0.32771096 0.042460121 -0.70999998
0.32886258 0.042460121 -0.70999998
0.32769012 0.042161107 -0.70499998
0.32603505 0.041802291 -0.699
0.32716882 0.041802291 -0.699
0.32642388 0.041563079 -0.69499999
0.32755116 0.041563079 -0.69499999
0.32678673 0.041323867 -0.69099998
0.32553482 0.041024853 -0.68599999
0.32664749 0.041024853 -0.68599999
0.32584903 0.040785637 -0.68199998
0.32695523 0.040785637 -0.68199998
0.32613727 0.040546425 -0.67799997
0.32530642 0.040307216 -0.67400002
0.32639962 0.040307216 -0.67400002
0.32603514 0.040127806 -0.671
0.32712349 0.040127806 -0.671
0.32674441 0.039948396 -0.66799998
0.32586485 0.039709184 -0.66399997
0.32694182 0.039709184 -0.66399997
0.32653683 0.039529778 -0.66100001
0.32760894 0.039529778 -0.66100001
0.32669207 0.039290566 -0.65700001
0.32576224 0.039051354 -0.653
0.32682139 0.039051354 -0.653
