# .PCD v0.7 - Point Cloud Data file format
VERSION 0.7
FIELDS x y z
SIZE 4 4 4
TYPE F F F
COUNT 1 1 1
WIDTH 1480
HEIGHT 1
VIEWPOINT 0 0 0 1 0 0 0
POINTS 1480
DATA ascii
0.33481997 0.12999608 -0.68000001
0.33444089 0.12942256 -0.67699999
0.33553895 0.12942256 -0.67699999
0.33365357 0.12827554 -0.671
0.33324528 0.12770203 -0.66799998
0.33432877 0.12770203 -0.66799998
0.33340377 0.12693734 -0.66399997
0.33448076 0.12693734 -0.66399997
0.33303097 0.12598149 -0.65899998
0.33257893 0.12540799 -0.65600002
0.33364296 0.12540799 -0.65600002
0.33266607 0.1246433 -0.65200001
0.3337236 0.1246433 -0.65200001
0.33445367 0.19883679 -1.049
0.33519375 0.19826813 -1.046
0.33689034 0.19826813 -1.046
0.33632106 0.1969413 -1.039
0.33800629 0.1969413 -1.039
0.33740291 0.19561444 -1.0319999
0.33611974 0.19390851 -1.023
0.33777902 0.19390851 -1.023
0.33612025 0.19201303 -1.013
0.33776331 0.19201303 -1.013
0.33572078 0.18992798 -1.002
0.33397928 0.18803249 -0.99199998
0.33558828 0.18803249 -0.99199998
0.33345821 0.18594746 -0.98100001
0.33504936 0.18594746 -0.98100001
0.33355206 0.18424152 -0.972
0.33202559 0.18253557 -0.963
0.33358756 0.18253557 -0.963
0.33201727 0.18082963 -0.954
0.33356464 0.18082963 -0.954
0.33195058 0.1791237 -0.94499999
0.33066019 0.1776073 -0.93699998
0.33217999 0.1776073 -0.93699998
0.33156297 0.17647001 -0.93099999
0.33307302 0.17647001 -0.93099999
0.33314556 0.17571181 -0.92699999
0.33284411 0.17476407 -0.92199999
0.33433959 0.17476407 -0.92199999
0.33401382 0.17381632 -0.917
0.33550116 0.17381632 -0.917
0.33551854 0.17305812 -0.91299999
0.33515385 0.17211038 -0.90799999
0.33662659 0.17211038 -0.90799999
0.33660993 0.17135219 -0.90399998
0.3380762 0.17135219 -0.90399998
0.33728886 0.17021489 -0.898
0.33648208 0.16907761 -0.89200002
0.33792889 0.16907761 -0.89200002
0.33709288 0.1679403 -0.88599998
0.33852994 0.1679403 -0.88599998
0.33766475 0.16680302 -0.88
0.3356241 0.16509707 -0.87099999
0.33703685 0.16509707 -0.87099999
0.33534098 0.16358069 -0.86299998
0.33674073 0.16358069 -0.86299998
0.33461413 0.16187474 -0.85399997
0.33285177 0.16035835 -0.84600002
0.33422396 0.16035835 -0.84600002
0.33242267 0.15884197 -0.838
0.33378187 0.15884197 -0.838
0.33194163 0.15732557 -0.82999998
0.33047703 0.15599874 -0.82300001
0.33181193 0.15599874 -0.82300001
0.33031324 0.15467189 -0.81599998
0.33163676 0.15467189 -0.81599998
0.33051205 0.15353459 -0.81
0.3301872 0.15277641 -0.80599999
0.33149451 0.15277641 -0.80599999
0.33032441 0.1516391 -0.80000001
0.33162197 0.1516391 -0.80000001
0.33083883 0.15069136 -0.79500002
0.33003944 0.14974362 -0.79000002
0.33132079 0.14974362 -0.79000002
0.33049709 0.14879587 -0.78500003
0.33177033 0.14879587 -0.78500003
0.33134654 0.14803769 -0.78100002
0.33090979 0.14727949 -0.77700001
0.33217004 0.14727949 -0.77700001
0.33171383 0.14652129 -0.773
0.33296761 0.14652129 -0.773
0.3324919 0.14576308 -0.76899999
0.33113527 0.1446258 -0.76300001
0.33237284 0.1446258 -0.76300001
0.33142424 0.14367805 -0.75800002
0.3326537 0.14367805 -0.75800002
0.33212122 0.14291985 -0.75400001
0.33113369 0.14197211 -0.74900001
0.33234856 0.14197211 -0.74900001
0.33178204 0.14121392 -0.745
0.33299041 0.14121392 -0.745
0.33150724 0.14007662 -0.73900002
0.3300046 0.13893932 -0.73299998
0.33119351 0.13893932 -0.73299998
0.33011514 0.13799158 -0.72799999
0.33129594 0.13799158 -0.72799999
0.33019325 0.13704383 -0.72299999
0.32953265 0.13628565 -0.71899998
0.33069885 0.13628565 -0.71899998
0.33001879 0.13552745 -0.71499997
0.33117852 0.13552745 -0.71499997
0.330479 0.13476926 -0.71100003
0.32976651 0.13401106 -0.70700002
0.33091325 0.13401106 -0.70700002
0.33018127 0.13325287 -0.70300001
0.33132151 0.13325287 -0.70300001
0.331043 0.13268422 -0.69999999
0.33075479 0.13211557 -0.69700003
0.33188531 0.13211557 -0.69700003
0.33158246 0.13154693 -0.69400001
0.33270812 0.13154693 -0.69400001
0.33287168 0.13116783 -0.69199997
0.33254614 0.13059919 -0.68900001
0.3336637 0.13059919 -0.68900001
0.33332354 0.13003053 -0.68599999
0.3339487 0.12984098 -0.685
0.33310321 0.12908278 -0.68099999
0.33224472 0.1283246 -0.67699999
0.33334279 0.1283246 -0.67699999
0.33295888 0.12775595 -0.67400002
0.33405209 0.12775595 -0.67400002
0.33265907 0.12680821 -0.66900003
0.3312498 0.12586045 -0.66399997
0.3323268 0.12586045 -0.66399997
0.33189747 0.12529181 -0.66100001
0.33296958 0.12529181 -0.66100001
0.33202028 0.12453362 -0.65700001
0.330551 0.12358587 -0.65200001
0.33160853 0.12358587 -0.65200001
0.33113539 0.12301722 -0.64899999
0.33218804 0.12301722 -0.64899999
0.33170831 0.19957854 -1.062
0.33343086 0.19957854 -1.062
0.3326287 0.19807513 -1.054
0.33433825 0.19807513 -1.054
0.33381602 0.19675964 -1.0470001
0.33327103 0.19544414 -1.04
0.33495787 0.19544414 -1.04
0.33502623 0.1945045 -1.035
0.336705 0.1945045 -1.035
0.33576819 0.19300108 -1.027
0.33513403 0.1916856 -1.02
0.33678845 0.1916856 -1.02
0.3357884 0.19018218 -1.012
0.33742985 0.19018218 -1.012
0.3350507 0.18792707 -1
0.33296928 0.18585987 -0.98900002
0.33457342 0.18585987 -0.98900002
0.33311829 0.18416852 -0.98000002
0.33470783 0.18416852 -0.98000002
0.33286577 0.18228926 -0.97000003
0.33133602 0.18059792 -0.96100003
0.33289474 0.18059792 -0.96100003
0.33166924 0.17909449 -0.95300001
0.333215 0.17909449 -0.95300001
0.33195058 0.17759107 -0.94499999
0.33066019 0.17608765 -0.93699998
0.33217999 0.17608765 -0.93699998
0.33156297 0.17496009 -0.93099999
0.33307302 0.17496009 -0.93099999
0.33278617 0.17402045 -0.926
0.33284411 0.17326875 -0.92199999
0.33433959 0.17326875 -0.92199999
0.33401382 0.17232911 -0.917
0.33550116 0.17232911 -0.917
0.33551854 0.17157741 -0.91299999
0.33515385 0.17063777 -0.90799999
0.33662659 0.17063777 -0.90799999
0.33660993 0.16988605 -0.90399998
0.3380762 0.16988605 -0.90399998
0.33728886 0.1687585 -0.898
0.33648208 0.16763094 -0.89200002
0.33792889 0.16763094 -0.89200002
0.33709288 0.16650337 -0.88599998
0.33852994 0.16650337 -0.88599998
0.33766475 0.16537581 -0.88
0.3356241 0.16368447 -0.87099999
0.33703685 0.16368447 -0.87099999
0.33534098 0.16218105 -0.86299998
0.33674073 0.16218105 -0.86299998
0.33461413 0.16048971 -0.85399997
0.33245835 0.15879837 -0.84500003
0.3338289 0.15879837 -0.84500003
0.33242267 0.15748288 -0.838
0.33378187 0.15748288 -0.838
0.33194163 0.15597945 -0.82999998
0.33047703 0.15466398 -0.82300001
0.33181193 0.15466398 -0.82300001
0.33031324 0.15334848 -0.81599998
0.33163676 0.15334848 -0.81599998
0.33051205 0.15222092 -0.81
0.3301872 0.15146922 -0.80599999
0.33149451 0.15146922 -0.80599999
0.33032441 0.15034164 -0.80000001
0.33162197 0.15034164 -0.80000001
0.33083883 0.14940202 -0.79500002
0.33003944 0.14846238 -0.79000002
0.33132079 0.14846238 -0.79000002
0.33049709 0.14752275 -0.78500003
0.33177033 0.14752275 -0.78500003
0.33134654 0.14677104 -0.78100002
0.33090979 0.14601932 -0.77700001
0.33217004 0.14601932 -0.77700001
0.33171383 0.14526762 -0.773
0.33296761 0.14526762 -0.773
0.3324919 0.1445159 -0.76899999
0.33113527 0.14338835 -0.76300001
0.33237284 0.14338835 -0.76300001
0.33142424 0.14244871 -0.75800002
0.3326537 0.14244871 -0.75800002
0.33212122 0.141697 -0.75400001
0.33113369 0.14075737 -0.74900001
0.33234856 0.14075737 -0.74900001
0.33178204 0.14000566 -0.745
0.33299041 0.14000566 -0.745
0.33150724 0.13887811 -0.73900002
0.3300046 0.13775054 -0.73299998
0.33119351 0.13775054 -0.73299998
0.33011514 0.1368109 -0.72799999
0.33129594 0.1368109 -0.72799999
0.33019325 0.13587126 -0.72299999
0.32953265 0.13511956 -0.71899998
0.33069885 0.13511956 -0.71899998
0.33001879 0.13436784 -0.71499997
0.33117852 0.13436784 -0.71499997
0.330479 0.13361615 -0.71100003
0.32976651 0.13286443 -0.70700002
0.33091325 0.13286443 -0.70700002
0.33018127 0.13211273 -0.70300001
0.33132151 0.13211273 -0.70300001
0.331043 0.13154894 -0.69999999
0.33075479 0.13098517 -0.69700003
0.33188531 0.13098517 -0.69700003
0.33158246 0.13042139 -0.69400001
0.33270812 0.13042139 -0.69400001
0.33287168 0.13004552 -0.69199997
0.33254614 0.12948175 -0.68900001
0.3336637 0.12948175 -0.68900001
0.33332354 0.12891796 -0.68599999
0.33443621 0.12891796 -0.68599999
0.33310321 0.12797832 -0.68099999
0.33224472 0.12722662 -0.67699999
0.33334279 0.12722662 -0.67699999
0.33295888 0.12666285 -0.67400002
0.33405209 0.12666285 -0.67400002
0.33265907 0.12572321 -0.66900003
0.3312498 0.12478356 -0.66399997
0.3323268 0.12478356 -0.66399997
0.33189747 0.12421979 -0.66100001
0.33296958 0.12421979 -0.66100001
0.33202028 0.12346808 -0.65700001
0.330551 0.12252845 -0.65200001
0.33160853 0.12252845 -0.65200001
0.33113539 0.12196466 -0.64899999
0.33218804 0.12196466 -0.64899999
0.33216083 0.19916029 -1.069
0.33170831 0.19785617 -1.062
0.33343086 0.19785617 -1.062
0.3326287 0.19636573 -1.054
0.33433825 0.19636573 -1.054
0.33381602 0.19506159 -1.0470001
0.33327103 0.19375744 -1.04
0.33495787 0.19375744 -1.04
0.33502623 0.19282591 -1.035
0.336705 0.19282591 -1.035
0.33576819 0.19133547 -1.027
0.33513403 0.19003133 -1.02
0.33678845 0.19003133 -1.02
0.3357884 0.18854089 -1.012
0.33742985 0.18854089 -1.012
0.3350507 0.18630524 -1
0.33296928 0.18425588 -0.98900002
0.33457342 0.18425588 -0.98900002
0.33311829 0.18257913 -0.98000002
0.33470783 0.18257913 -0.98000002
0.33286577 0.18071608 -0.97000003
0.33133602 0.17903934 -0.96100003
0.33289474 0.17903934 -0.96100003
0.33166924 0.17754889 -0.95300001
0.333215 0.17754889 -0.95300001
0.33195058 0.17605844 -0.94499999
0.33066019 0.174568 -0.93699998
0.33217999 0.174568 -0.93699998
0.33156297 0.17345017 -0.93099999
0.33307302 0.17345017 -0.93099999
0.33278617 0.17251866 -0.926
0.33284411 0.17177343 -0.92199999
0.33433959 0.17177343 -0.92199999
0.33401382 0.1708419 -0.917
0.33550116 0.1708419 -0.917
0.33551854 0.17009668 -0.91299999
0.33515385 0.16916515 -0.90799999
0.33662659 0.16916515 -0.90799999
0.33660993 0.16841993 -0.90399998
0.3380762 0.16841993 -0.90399998
0.33766446 0.16748841 -0.89899999
0.33648208 0.16618428 -0.89200002
0.33792889 0.16618428 -0.89200002
0.33747336 0.16525275 -0.88700002
0.33891204 0.16525275 -0.88700002
0.33766475 0.16394861 -0.88
0.3356241 0.16227186 -0.87099999
0.33703685 0.16227186 -0.87099999
0.33534098 0.16078141 -0.86299998
0.33674073 0.16078141 -0.86299998
0.33461413 0.15910466 -0.85399997
0.33245835 0.15742794 -0.84500003
0.3338289 0.15742794 -0.84500003
0.33202597 0.15593748 -0.83700001
0.33338356 0.15593748 -0.83700001
0.33154172 0.15444703 -0.829
0.3300755 0.15314291 -0.82200003
0.33140874 0.15314291 -0.82200003
0.32990843 0.15183876 -0.815
0.33123034 0.15183876 -0.815
0.33051205 0.15090725 -0.81
0.32977754 0.14997572 -0.80500001
0.33108324 0.14997572 -0.80500001
0.3299115 0.14885789 -0.79900002
0.33120745 0.14885789 -0.79900002
0.33042267 0.14792636 -0.79400003
0.32962164 0.14699483 -0.78899997
0.33090138 0.14699483 -0.78899997
0.33049709 0.14624962 -0.78500003
0.33177033 0.14624962 -0.78500003
0.33092228 0.14531808 -0.77999997
0.33048391 0.14457287 -0.77600002
0.33174255 0.14457287 -0.77600002
0.33171383 0.14401394 -0.773
0.33296761 0.14401394 -0.773
0.33205956 0.14308242 -0.76800001
0.33113527 0.14215089 -0.76300001
0.33237284 0.14215089 -0.76300001
0.33098701 0.14103307 -0.75700003
0.33221483 0.14103307 -0.75700003
0.33168074 0.14028785 -0.75300002
0.33113369 0.13954262 -0.74900001
0.33234856 0.13954262 -0.74900001
0.33133671 0.13861109 -0.74400002
0.33254343 0.13861109 -0.74400002
0.33150724 0.13767958 -0.73900002
0.3300046 0.13656174 -0.73299998
0.33119351 0.13656174 -0.73299998
0.33011514 0.13563021 -0.72799999
0.33129594 0.13563021 -0.72799999
0.32973656 0.13451238 -0.722
0.32907435 0.13376716 -0.71799999
0.33023891 0.13376716 -0.71799999
0.32955724 0.13302194 -0.71399999
0.33071533 0.13302194 -0.71399999
0.33001417 0.13227671 -0.70999998
0.32883364 0.13134518 -0.70499998
0.32997712 0.13134518 -0.70499998
0.3292419 0.13059996 -0.70099998
0.33037892 0.13059996 -0.70099998
0.33009717 0.13004106 -0.69800001
0.3298057 0.12948214 -0.69499999
0.33093297 0.12948214 -0.69499999
0.33062688 0.12892322 -0.69199997
0.33174929 0.12892322 -0.69199997
0.33142862 0.12836431 -0.68900001
0.3310982 0.1278054 -0.68599999
0.33221087 0.1278054 -0.68599999
0.33186588 0.12724648 -0.68300003
0.33297369 0.12724648 -0.68300003
0.33212495 0.12650126 -0.67900002
0.33126321 0.12575604 -0.67500001
0.33235806 0.12575604 -0.67500001
0.33147687 0.12501082 -0.671
0.33256522 0.12501082 -0.671
0.33166456 0.12426559 -0.667
0.3312498 0.12370667 -0.66399997
0.3323268 0.12370667 -0.66399997
0.33089322 0.12277514 -0.65899998
0.33196208 0.12277514 -0.65899998
0.33050418 0.12184362 -0.65399998
0.32953703 0.1210984 -0.64999998
0.33059132 0.1210984 -0.64999998
0.33011496 0.12053949 -0.64700001
0.33116436 0.12053949 -0.64700001
0.33032358 0.19945809 -1.08
0.32992291 0.1981653 -1.073
0.33166331 0.1981653 -1.073
0.33153939 0.1970572 -1.067
0.3310836 0.19576441 -1.0599999
0.33280289 0.19576441 -1.0599999
0.33231309 0.19447163 -1.053
0.33402103 0.19447163 -1.053
0.33349717 0.19317885 -1.046
0.33295059 0.19188607 -1.039
0.33463582 0.19188607 -1.039
0.33405516 0.19059327 -1.0319999
0.33572903 0.19059327 -1.0319999
0.33511433 0.18930049 -1.025
0.33447692 0.18800771 -1.018
0.33612809 0.18800771 -1.018
0.33412939 0.18597619 -1.007
0.33576271 0.18597619 -1.007
0.33337545 0.18376 -0.995
0.33195925 0.18209785 -0.986
0.33355853 0.18209785 -0.986
0.33209854 0.18043569 -0.977
0.33368319 0.18043569 -0.977
0.33286577 0.17914292 -0.97000003
0.33030167 0.17692672 -0.958
0.33185554 0.17692672 -0.958
0.33097318 0.17563392 -0.95099998
0.33251569 0.17563392 -0.95099998
0.3315993 0.17434114 -0.94400001
0.33066019 0.17304835 -0.93699998
0.33217999 0.17304835 -0.93699998
0.33120683 0.17175558 -0.93000001
0.33271527 0.17175558 -0.93000001
0.33278617 0.17101684 -0.926
0.33212212 0.16990875 -0.92000002
0.33361435 0.16990875 -0.92000002
0.33364958 0.16917001 -0.91600001
0.33513528 0.16917001 -0.91600001
0.33515105 0.16843127 -0.912
0.33515385 0.16769254 -0.90799999
0.33662659 0.16769254 -0.90799999
0.33623758 0.16676912 -0.903
0.33770221 0.16676912 -0.903
0.33728886 0.16584571 -0.898
0.33648208 0.16473761 -0.89200002
0.33792889 0.16473761 -0.89200002
0.33709288 0.1636295 -0.88599998
0.33852994 0.1636295 -0.88599998
0.33689734 0.16215204 -0.87800002
0.33523878 0.16067457 -0.87
0.33664989 0.16067457 -0.87
0.33456382 0.15901242 -0.861
0.33596036 0.15901242 -0.861
0.33422232 0.15753494 -0.85299999
0.33245835 0.15605749 -0.84500003
0.3338289 0.15605749 -0.84500003
0.33162931 0.15439534 -0.83600003
0.33298528 0.15439534 -0.83600003
0.33154172 0.15310255 -0.829
0.3300755 0.15180977 -0.82200003
0.33140874 0.15180977 -0.82200003
0.32990843 0.15051699 -0.815
0.33123034 0.15051699 -0.815
0.33010402 0.14940888 -0.80900002
0.32977754 0.14867015 -0.80500001
0.33108324 0.14867015 -0.80500001
0.3299115 0.14756206 -0.79900002
0.33120745 0.14756206 -0.79900002
0.33042267 0.14663863 -0.79400003
0.32962164 0.14571521 -0.78899997
0.33090138 0.14571521 -0.78899997
0.33049709 0.14497648 -0.78500003
0.33177033 0.14497648 -0.78500003
0.33092228 0.14405306 -0.77999997
0.33048391 0.14331433 -0.77600002
0.33174255 0.14331433 -0.77600002
0.33171383 0.14276028 -0.773
0.33296761 0.14276028 -0.773
0.33205956 0.14183687 -0.76800001
0.33070129 0.14072877 -0.76200002
0.33193722 0.14072877 -0.76200002
0.33098701 0.13980535 -0.75700003
0.33221483 0.13980535 -0.75700003
0.33168074 0.13906661 -0.75300002
0.33069161 0.1381432 -0.74800003
0.33190483 0.1381432 -0.74800003
0.33133671 0.13740446 -0.74400002
0.33254343 0.13740446 -0.74400002
0.33150724 0.13648105 -0.73900002
0.3300046 0.13537294 -0.73299998
0.33119351 0.13537294 -0.73299998
0.3296617 0.13426484 -0.727
0.33084089 0.13426484 -0.727
0.32973656 0.13334143 -0.722
0.32861602 0.13241801 -0.71700001
0.32977897 0.13241801 -0.71700001
0.32909566 0.13167927 -0.713
0.33025214 0.13167927 -0.713
0.32908458 0.13075586 -0.708
0.32790077 0.12983245 -0.70300001
0.32904103 0.12983245 -0.70300001
0.32877225 0.12927839 -0.69999999
0.32990763 0.12927839 -0.69999999
0.32915133 0.12853965 -0.69599998
0.32885662 0.12798561 -0.69300002
0.32998064 0.12798561 -0.69300002
0.32967132 0.12743156 -0.69
0.33079049 0.12743156 -0.69
0.33094761 0.12706219 -0.68800002
0.3301329 0.12632346 -0.68400002
0.33124235 0.12632346 -0.68400002
0.33089408 0.12576941 -0.68099999
0.33199865 0.12576941 -0.68099999
0.33114666 0.12503067 -0.67699999
0.33077246 0.12447663 -0.67400002
0.33186567 0.12447663 -0.67400002
0.33098286 0.12373789 -0.67000002
0.33206958 0.12373789 -0.67000002
0.33116731 0.12299915 -0.66600001
0.33025208 0.12226042 -0.662
0.33132583 0.12226042 -0.662
0.329889 0.121337 -0.65700001
0.33095464 0.121337 -0.65700001
0.32999882 0.12059827 -0.653
0.32903007 0.11985953 -0.64899999
0.33008271 0.11985953 -0.64899999
0.32909447 0.1191208 -0.64499998
0.33014065 0.1191208 -0.64499998
0.32924098 0.19917102 -1.0880001
0.33100569 0.19917102 -1.0880001
0.33032358 0.19770652 -1.08
0.32992291 0.19642508 -1.073
0.33166331 0.19642508 -1.073
0.33153939 0.19532672 -1.067
0.3310836 0.19404528 -1.0599999
0.33280289 0.19404528 -1.0599999
0.33231309 0.19276385 -1.053
0.33402103 0.19276385 -1.053
0.33349717 0.19148242 -1.046
0.33295059 0.190201 -1.039
0.33463582 0.190201 -1.039
0.33405516 0.18891954 -1.0319999
0.33572903 0.18891954 -1.0319999
0.33511433 0.18763812 -1.025
0.33447692 0.18635669 -1.018
0.33612809 0.18635669 -1.018
0.33412939 0.18434301 -1.007
0.33576271 0.18434301 -1.007
0.33337545 0.18214628 -0.995
0.33195925 0.18049873 -0.986
0.33355853 0.18049873 -0.986
0.33209854 0.17885117 -0.977
0.33368319 0.17885117 -0.977
0.33526787 0.17885117 -0.977
0.33030167 0.175373 -0.958
0.33185554 0.175373 -0.958
0.33097318 0.17409156 -0.95099998
0.33251569 0.17409156 -0.95099998
0.3315993 0.17281014 -0.94400001
0.33066019 0.17152871 -0.93699998
0.33217999 0.17152871 -0.93699998
0.33120683 0.17024729 -0.93000001
0.33271527 0.17024729 -0.93000001
0.33278617 0.16951503 -0.926
0.33212212 0.16841666 -0.92000002
0.33361435 0.16841666 -0.92000002
0.33364958 0.16768442 -0.91600001
0.33513528 0.16768442 -0.91600001
0.33515105 0.16695216 -0.912
0.33515385 0.16621992 -0.90799999
0.33662659 0.16621992 -0.90799999
0.33623758 0.16530462 -0.903
0.33770221 0.16530462 -0.903
0.33728886 0.16438931 -0.898
0.33648208 0.16329095 -0.89200002
0.33792889 0.16329095 -0.89200002
0.33709288 0.16219257 -0.88599998
0.33852994 0.16219257 -0.88599998
0.33689734 0.16072808 -0.87800002
0.33523878 0.15926358 -0.87
0.33664989 0.15926358 -0.87
0.33456382 0.15761603 -0.861
0.33596036 0.15761603 -0.861
0.33422232 0.15615153 -0.85299999
0.33245835 0.15468705 -0.84500003
0.3338289 0.15468705 -0.84500003
0.33162931 0.1530395 -0.83600003
0.33298528 0.1530395 -0.83600003
0.33154172 0.15175806 -0.829
0.3300755 0.15047663 -0.82200003
0.33140874 0.15047663 -0.82200003
0.32990843 0.14919519 -0.815
0.33123034 0.14919519 -0.815
0.33010402 0.14809683 -0.80900002
0.32977754 0.14736459 -0.80500001
0.33108324 0.14736459 -0.80500001
0.3299115 0.14626621 -0.79900002
0.33120745 0.14626621 -0.79900002
0.33042267 0.1453509 -0.79400003
0.32962164 0.14443558 -0.78899997
0.33090138 0.14443558 -0.78899997
0.33049709 0.14370336 -0.78500003
0.33177033 0.14370336 -0.78500003
0.33134654 0.1429711 -0.78100002
0.33048391 0.14205579 -0.77600002
0.33174255 0.14205579 -0.77600002
0.33171383 0.14150661 -0.773
0.33296761 0.14150661 -0.773
0.33205956 0.14059131 -0.76800001
0.33070129 0.13949293 -0.76200002
0.33193722 0.13949293 -0.76200002
0.33098701 0.13857763 -0.75700003
0.33221483 0.13857763 -0.75700003
0.33168074 0.13784538 -0.75300002
0.33069161 0.13693008 -0.74800003
0.33190483 0.13693008 -0.74800003
0.33133671 0.13619782 -0.74400002
0.33254343 0.13619782 -0.74400002
0.33150724 0.13528252 -0.73900002
0.3300046 0.13418414 -0.73299998
0.33119351 0.13418414 -0.73299998
0.3296617 0.13308577 -0.727
0.33084089 0.13308577 -0.727
0.32973656 0.13217047 -0.722
0.32861602 0.13125516 -0.71700001
0.32977897 0.13125516 -0.71700001
0.32909566 0.13052291 -0.713
0.33025214 0.13052291 -0.713
0.32908458 0.1296076 -0.708
0.32790077 0.1286923 -0.70300001
0.32904103 0.1286923 -0.70300001
0.32877225 0.12814312 -0.69999999
0.32990763 0.12814312 -0.69999999
0.32915133 0.12741086 -0.69599998
0.32885662 0.12686169 -0.69300002
0.32998064 0.12686169 -0.69300002
0.32967132 0.12631249 -0.69
0.33079049 0.12631249 -0.69
0.33094761 0.12594637 -0.68800002
0.3301329 0.12521413 -0.68400002
0.33124235 0.12521413 -0.68400002
0.33089408 0.12466494 -0.68099999
0.33199865 0.12466494 -0.68099999
0.33114666 0.1239327 -0.67699999
0.33077246 0.12338351 -0.67400002
0.33186567 0.12338351 -0.67400002
0.33098286 0.12265126 -0.67000002
0.33206958 0.12265126 -0.67000002
0.33116731 0.12191902 -0.66600001
0.33025208 0.12118677 -0.662
0.33132583 0.12118677 -0.662
0.329889 0.12027147 -0.65700001
0.33095464 0.12027147 -0.65700001
0.32999882 0.11953922 -0.653
0.32903007 0.11880697 -0.64899999
0.33008271 0.11880697 -0.64899999
0.32909447 0.11807472 -0.64499998
0.33014065 0.11807472 -0.64499998
0.32840586 0.19903943 -1.097
0.33018517 0.19903943 -1.097
0.32924098 0.19740647 -1.0880001
0.33100569 0.19740647 -1.0880001
0.33032358 0.19595495 -1.08
0.32992291 0.19468486 -1.073
0.33166331 0.19468486 -1.073
0.33091795 0.19323336 -1.0650001
0.33045894 0.19196327 -1.058
0.33217499 0.19196327 -1.058
0.33105075 0.19033031 -1.049
0.3327522 0.19033031 -1.049
0.33222187 0.18906024 -1.0420001
0.33166876 0.18779016 -1.035
0.3333475 0.18779016 -1.035
0.33276036 0.18652008 -1.028
0.33442777 0.18652008 -1.028
0.33413351 0.18543144 -1.022
0.33283412 0.18379848 -1.013
0.33447719 0.18379848 -1.013
0.33280218 0.18198408 -1.003
0.334429 0.18198408 -1.003
0.33237028 0.17998825 -0.99199998
0.33094922 0.17835529 -0.98299998
0.33254364 0.17835529 -0.98299998
0.33209854 0.17726666 -0.977
0.33368319 0.17726666 -0.977
0.33080679 0.17490794 -0.96399999
0.32961211 0.17345642 -0.95599997
0.33116272 0.17345642 -0.95599997
0.32992911 0.17200489 -0.94800001
0.33146676 0.17200489 -0.94800001
0.33054549 0.17073482 -0.94099998
0.32960153 0.16946474 -0.93400002
0.33111644 0.16946474 -0.93400002
0.33049455 0.1683761 -0.92799997
0.33199975 0.1683761 -0.92799997
0.33206743 0.16765034 -0.92400002
0.33212212 0.16692458 -0.92000002
0.33361435 0.16692458 -0.92000002
0.33328533 0.16601738 -0.91500002
0.33476943 0.16601738 -0.91500002
0.33404857 0.16492875 -0.90899998
0.33404651 0.16420299 -0.90499997
0.3355144 0.16420299 -0.90499997
0.33549288 0.16347723 -0.90100002
0.33695427 0.16347723 -0.90100002
0.33653769 0.16257003 -0.89600003
0.33572763 0.1614814 -0.88999999
0.33717117 0.1614814 -0.88999999
0.33595148 0.16021131 -0.88300002
0.33738369 0.16021131 -0.88300002
0.3361299 0.15894124 -0.87599999
0.33408278 0.15730828 -0.86699998
0.33548903 0.15730828 -0.86699998
0.33417526 0.15603819 -0.86000001
0.33557016 0.15603819 -0.86000001
0.33383051 0.15458667 -0.852
0.33206487 0.15313517 -0.84399998
0.33343381 0.15313517 -0.84399998
0.33162931 0.15168364 -0.83600003
0.33298528 0.15168364 -0.83600003
0.3311418 0.15023212 -0.82800001
0.32927236 0.1487806 -0.81999999
0.33060238 0.1487806 -0.81999999
0.32990843 0.1478734 -0.815
0.33123034 0.1478734 -0.815
0.33010402 0.14678477 -0.80900002
0.32977754 0.14605901 -0.80500001
0.33108324 0.14605901 -0.80500001
0.3299115 0.14497037 -0.79900002
0.33120745 0.14497037 -0.79900002
0.33042267 0.14406317 -0.79400003
0.32962164 0.14315598 -0.78899997
0.33090138 0.14315598 -0.78899997
0.33049709 0.14243022 -0.78500003
0.33177033 0.14243022 -0.78500003
0.33092228 0.14152302 -0.77999997
0.33048391 0.14079726 -0.77600002
0.33174255 0.14079726 -0.77600002
0.33171383 0.14025293 -0.773
0.33296761 0.14025293 -0.773
0.33162719 0.1391643 -0.76700002
0.33070129 0.1382571 -0.76200002
0.33193722 0.1382571 -0.76200002
0.33098701 0.1373499 -0.75700003
0.33221483 0.1373499 -0.75700003
0.33168074 0.13662414 -0.75300002
0.33069161 0.13571694 -0.74800003
0.33190483 0.13571694 -0.74800003
0.33133671 0.13499118 -0.74400002
0.33254343 0.13499118 -0.74400002
0.33150724 0.13408399 -0.73900002
0.32955441 0.1328139 -0.73199999
0.33074167 0.1328139 -0.73199999
0.3296617 0.1319067 -0.727
0.33084089 0.1319067 -0.727
0.32973656 0.13099951 -0.722
0.32861602 0.13009231 -0.71700001
0.32977897 0.13009231 -0.71700001
0.32909566 0.12936655 -0.713
0.33025214 0.12936655 -0.713
0.32908458 0.12845935 -0.708
0.32790077 0.12755215 -0.70300001
0.32904103 0.12755215 -0.70300001
0.32830256 0.12682639 -0.699
0.32943633 0.12682639 -0.699
0.32915133 0.12628207 -0.69599998
0.32838205 0.12555632 -0.69199997
0.32950446 0.12555632 -0.69199997
0.32919353 0.125012 -0.68900001
0.33031109 0.125012 -0.68900001
0.32998553 0.12446768 -0.68599999
0.32965025 0.12392336 -0.68300003
0.33075806 0.12392336 -0.68300003
0.33040819 0.12337904 -0.68000001
0.33151114 0.12337904 -0.68000001
0.33114666 0.12283472 -0.67699999
0.33028167 0.12210896 -0.67299998
0.33137327 0.12210896 -0.67299998
0.33048886 0.12138321 -0.66900003
0.33157396 0.12138321 -0.66900003
0.33116731 0.12083889 -0.66600001
0.32975319 0.11993169 -0.66100001
0.33082533 0.11993169 -0.66100001
0.329889 0.11920593 -0.65700001
0.33095464 0.11920593 -0.65700001
0.32949349 0.11829873 -0.65200001
0.32852307 0.11757297 -0.648
0.32957414 0.11757297 -0.648
0.32858425 0.11684721 -0.64399999
0.32962883 0.11684721 -0.64399999
0.33019948 0.1994181 -1.109
0.32840586 0.19726028 -1.097
0.33018517 0.19726028 -1.097
0.32924098 0.19564193 -1.0880001
0.33100569 0.19564193 -1.0880001
0.32971182 0.19384374 -1.0779999
0.32930797 0.19258501 -1.071
0.33104512 0.19258501 -1.071
0.33060721 0.19132629 -1.064
0.32983425 0.18988775 -1.056
0.33154705 0.18988775 -1.056
0.3304196 0.18826939 -1.0470001
0.3321178 0.18826939 -1.0470001
0.33158416 0.18701065 -1.04
0.3307074 0.1855721 -1.0319999
0.33238128 0.1855721 -1.0319999
0.33178928 0.18431339 -1.025
0.33345181 0.18431339 -1.025
0.33249879 0.18287484 -1.017
0.3311913 0.18125649 -1.008
0.33282626 0.18125649 -1.008
0.33147493 0.17963813 -0.99900001
0.33309528 0.17963813 -0.99900001
0.33069503 0.17748031 -0.98699999
0.32926586 0.17586194 -0.97799999
0.33085215 0.17586194 -0.97799999
0.3293792 0.17424358 -0.96899998
0.33095089 0.17424358 -0.96899998
0.32943413 0.17262521 -0.95999998
0.32857776 0.1713665 -0.95300001
0.33012351 0.1713665 -0.95300001
0.32888505 0.16992795 -0.94499999
0.33041781 0.16992795 -0.94499999
0.33019421 0.16902886 -0.94
0.32924864 0.16777015 -0.93300003
0.33076194 0.16777015 -0.93300003
0.33013842 0.16669123 -0.92699999
0.33164197 0.16669123 -0.92699999
0.33170801 0.16597195 -0.92299998
0.3310391 0.16489305 -0.917
0.33252645 0.16489305 -0.917
0.33219257 0.16399397 -0.912
0.33367181 0.16399397 -0.912
0.33368111 0.16327469 -0.90799999
0.33330828 0.1623756 -0.903
0.33477294 0.1623756 -0.903
0.33474815 0.16165633 -0.89899999
0.33620632 0.16165633 -0.89899999
0.33578646 0.16075724 -0.89399999
0.33459598 0.15949851 -0.88700002
0.33603466 0.15949851 -0.88700002
0.33519053 0.15841961 -0.88099998
0.3366195 0.15841961 -0.88099998
0.33536249 0.15716088 -0.87400001
0.33369744 0.15572233 -0.866
0.33510208 0.15572233 -0.866
0.3337867 0.15446362 -0.85900003
0.33517995 0.15446362 -0.85900003
0.33343866 0.15302508 -0.85100001
0.33206487 0.15176634 -0.84399998
0.33343381 0.15176634 -0.84399998
0.33162931 0.1503278 -0.83600003
0.33298528 0.1503278 -0.83600003
0.3311418 0.14888926 -0.82800001
0.32927236 0.14745072 -0.81999999
0.33060238 0.14745072 -0.81999999
0.32990843 0.14655162 -0.815
0.33123034 0.14655162 -0.815
0.33051205 0.14565253 -0.81
0.32977754 0.14475344 -0.80500001
0.33108324 0.14475344 -0.80500001
0.33032441 0.14385435 -0.80000001
0.33162197 0.14385435 -0.80000001
0.33042267 0.14277545 -0.79400003
0.32962164 0.14187635 -0.78899997
0.33090138 0.14187635 -0.78899997
0.33049709 0.14115709 -0.78500003
0.33177033 0.14115709 -0.78500003
0.33092228 0.14025798 -0.77999997
0.33048391 0.13953872 -0.77600002
0.33174255 0.13953872 -0.77600002
0.33171383 0.13899927 -0.773
0.33296761 0.13899927 -0.773
0.33162719 0.13792036 -0.76700002
0.33070129 0.13702127 -0.76200002
0.33193722 0.13702127 -0.76200002
0.33098701 0.13612218 -0.75700003
0.33221483 0.13612218 -0.75700003
0.33168074 0.13540292 -0.75300002
0.33069161 0.13450383 -0.74800003
0.33190483 0.13450383 -0.74800003
0.33133671 0.13378455 -0.74400002
0.33254343 0.13378455 -0.74400002
0.33150724 0.13288546 -0.73900002
0.32955441 0.13162673 -0.73199999
0.33074167 0.13162673 -0.73199999
0.3296617 0.13072765 -0.727
0.33084089 0.13072765 -0.727
0.32973656 0.12982856 -0.722
0.32907435 0.12910928 -0.71799999
0.33023891 0.12910928 -0.71799999
0.32909566 0.12821019 -0.713
0.33025214 0.12821019 -0.713
0.32908458 0.12731111 -0.708
0.32790077 0.12641202 -0.70300001
0.32904103 0.12641202 -0.70300001
0.32830256 0.12569274 -0.699
0.32943633 0.12569274 -0.699
0.32915133 0.12515329 -0.69599998
0.32838205 0.12443401 -0.69199997
0.32950446 0.12443401 -0.69199997
0.32871574 0.12371475 -0.68800002
0.32983169 0.12371475 -0.68800002
0.32950449 0.12317529 -0.685
0.3291676 0.12263583 -0.68199998
0.33027378 0.12263583 -0.68199998
0.32992229 0.12209639 -0.67900002
0.33102363 0.12209639 -0.67900002
0.3301684 0.12137711 -0.67500001
0.32979092 0.12083766 -0.67199999
0.33088088 0.12083766 -0.67199999
0.33048886 0.12029821 -0.66900003
0.33157396 0.12029821 -0.66900003
0.33067009 0.11957894 -0.66500002
0.32975319 0.11885966 -0.66100001
0.33082533 0.11885966 -0.66100001
0.32938689 0.11796057 -0.65600002
0.33045089 0.11796057 -0.65600002
0.32949349 0.1172413 -0.65200001
0.32852307 0.11652203 -0.648
0.32957414 0.11652203 -0.648
0.32858425 0.11580275 -0.64399999
0.32962883 0.11580275 -0.64399999
0.33013597 0.19975786 -1.1210001
0.33195421 0.19975786 -1.1210001
0.33019948 0.19761948 -1.109
0.32900459 0.19583753 -1.099
0.33078715 0.19583753 -1.099
0.32924098 0.19387738 -1.0880001
0.33100569 0.19387738 -1.0880001
0.32971182 0.1920954 -1.0779999
0.32930797 0.19084804 -1.071
0.33104512 0.19084804 -1.071
0.33060721 0.18960068 -1.064
0.32983425 0.1881751 -1.056
0.33154705 0.1881751 -1.056
0.3304196 0.18657134 -1.0470001
0.3321178 0.18657134 -1.0470001
0.33158416 0.18532395 -1.04
0.3307074 0.18389839 -1.0319999
0.33238128 0.18389839 -1.0319999
0.33178928 0.18265101 -1.025
0.33345181 0.18265101 -1.025
0.33249879 0.18122545 -1.017
0.3311913 0.1796217 -1.008
0.33282626 0.1796217 -1.008
0.33147493 0.17801793 -0.99900001
0.33309528 0.17801793 -0.99900001
0.33069503 0.17587957 -0.98699999
0.32926586 0.1742758 -0.97799999
0.33085215 0.1742758 -0.97799999
0.3293792 0.17267203 -0.96899998
0.33095089 0.17267203 -0.96899998
0.32943413 0.17106827 -0.95999998
0.32857776 0.1698209 -0.95300001
0.33012351 0.1698209 -0.95300001
0.32888505 0.16839533 -0.94499999
0.33041781 0.16839533 -0.94499999
0.33019421 0.16750436 -0.94
0.32924864 0.16625698 -0.93300003
0.33076194 0.16625698 -0.93300003
0.33013842 0.16518781 -0.92699999
0.33164197 0.16518781 -0.92699999
0.33170801 0.16447501 -0.92299998
0.3310391 0.16340584 -0.917
0.33252645 0.16340584 -0.917
0.33219257 0.16251487 -0.912
0.33367181 0.16251487 -0.912
0.33368111 0.16180207 -0.90799999
0.33330828 0.1609111 -0.903
0.33477294 0.1609111 -0.903
0.33474815 0.1601983 -0.89899999
0.33620632 0.1601983 -0.89899999
0.33578646 0.15930733 -0.89399999
0.33459598 0.15805995 -0.88700002
0.33603466 0.15805995 -0.88700002
0.33519053 0.15699078 -0.88099998
0.3366195 0.15699078 -0.88099998
0.33536249 0.15574341 -0.87400001
0.33369744 0.15431784 -0.866
0.33510208 0.15431784 -0.866
0.3337867 0.15307046 -0.85900003
0.33517995 0.15307046 -0.85900003
0.33343866 0.1516449 -0.85100001
0.33206487 0.15039752 -0.84399998
0.33343381 0.15039752 -0.84399998
0.33162931 0.14897196 -0.83600003
0.33298528 0.14897196 -0.83600003
0.3311418 0.14754638 -0.82800001
0.3300755 0.14647721 -0.82200003
0.33140874 0.14647721 -0.82200003
0.32990843 0.14522983 -0.815
0.33123034 0.14522983 -0.815
0.33051205 0.14433886 -0.81
0.3301872 0.14362606 -0.80599999
0.33149451 0.14362606 -0.80599999
0.33032441 0.14255689 -0.80000001
0.33162197 0.14255689 -0.80000001
0.33083883 0.14166592 -0.79500002
0.32962164 0.14059673 -0.78899997
0.33090138 0.14059673 -0.78899997
0.33049709 0.13988395 -0.78500003
0.33177033 0.13988395 -0.78500003
0.33134654 0.13917117 -0.78100002
0.33048391 0.1382802 -0.77600002
0.33174255 0.1382802 -0.77600002
0.33171383 0.1377456 -0.773
0.33296761 0.1377456 -0.773
0.33205956 0.13685462 -0.76800001
0.33070129 0.13578545 -0.76200002
0.33193722 0.13578545 -0.76200002
0.33098701 0.13489446 -0.75700003
0.33221483 0.13489446 -0.75700003
0.33168074 0.13418168 -0.75300002
0.33069161 0.13329071 -0.74800003
0.33190483 0.13329071 -0.74800003
0.33133671 0.13257791 -0.74400002
0.33254343 0.13257791 -0.74400002
0.33150724 0.13168694 -0.73900002
0.3300046 0.13061775 -0.73299998
0.33119351 0.13061775 -0.73299998
0.33011514 0.12972677 -0.72799999
0.33129594 0.12972677 -0.72799999
0.33019325 0.1288358 -0.72299999
0.32907435 0.12794481 -0.71799999
0.33023891 0.12794481 -0.71799999
0.32955724 0.12723203 -0.71399999
0.33071533 0.12723203 -0.71399999
0.32908458 0.12616286 -0.708
0.32790077 0.12527187 -0.70300001
0.32904103 0.12527187 -0.70300001
0.32830256 0.12455909 -0.699
0.32943633 0.12455909 -0.699
0.32915133 0.1240245 -0.69599998
0.32838205 0.12331171 -0.69199997
0.32950446 0.12331171 -0.69199997
0.32871574 0.12259893 -0.68800002
0.32983169 0.12259893 -0.68800002
0.32950449 0.12206434 -0.685
0.3291676 0.12152975 -0.68199998
0.33027378 0.12152975 -0.68199998
0.32992229 0.12099517 -0.67900002
0.33102363 0.12099517 -0.67900002
0.3301684 0.12028238 -0.67500001
0.32979092 0.11974779 -0.67199999
0.33088088 0.11974779 -0.67199999
0.33048886 0.11921321 -0.66900003
0.33157396 0.11921321 -0.66900003
0.33067009 0.11850042 -0.66500002
0.32975319 0.11778764 -0.66100001
0.33082533 0.11778764 -0.66100001
0.32938689 0.11689666 -0.65600002
0.33045089 0.11689666 -0.65600002
0.32949349 0.11618387 -0.65200001
0.32852307 0.11547109 -0.648
0.32957414 0.11547109 -0.648
0.32858425 0.1147583 -0.64399999
0.32962883 0.1147583 -0.64399999
0.3294121 0.19970554 -1.131
0.33124655 0.19970554 -1.131
0.33013597 0.1979398 -1.1210001
0.33195421 0.1979398 -1.1210001
0.33019948 0.19582088 -1.109
0.32900459 0.19405514 -1.099
0.33078715 0.19405514 -1.099
0.32924098 0.19211285 -1.0880001
0.33100569 0.19211285 -1.0880001
0.32971182 0.19034708 -1.0779999
0.32930797 0.18911107 -1.071
0.33104512 0.18911107 -1.071
0.33060721 0.18787505 -1.064
0.32983425 0.18646245 -1.056
0.33091915 0.1861093 -1.054
0.33010399 0.18469672 -1.046
0.33180058 0.18469672 -1.046
0.33062768 0.18310754 -1.0369999
0.3300665 0.18187152 -1.03
0.33173713 0.18187152 -1.03
0.33081818 0.18045892 -1.022
0.33247584 0.18045892 -1.022
0.33184493 0.17922291 -1.015
0.33020559 0.17745717 -1.005
0.33183569 0.17745717 -1.005
0.33014771 0.17569143 -0.995
0.33176157 0.17569143 -0.995
0.32968989 0.1737491 -0.98400003
0.32926586 0.17268966 -0.97799999
0.32983729 0.17215994 -0.97500002
0.3293792 0.17110048 -0.96899998
0.33095089 0.17110048 -0.96899998
0.32874784 0.16915818 -0.958
0.32857776 0.16827531 -0.95300001
0.3294307 0.16792215 -0.95099998
0.32853702 0.16668613 -0.94400001
0.33006817 0.16668613 -0.94400001
0.32949167 0.16562669 -0.93800002
0.32854283 0.16439067 -0.93099999
0.33005291 0.16439067 -0.93099999
0.32978228 0.16350779 -0.926
0.33128422 0.16350779 -0.926
0.33062991 0.16244835 -0.92000002
0.33067811 0.16174206 -0.91600001
0.33216384 0.16174206 -0.91600001
0.33182833 0.16085918 -0.91100001
0.33330595 0.16085918 -0.91100001
0.33257863 0.15979972 -0.90499997
0.33220094 0.15891686 -0.89999998
0.33366072 0.15891686 -0.89999998
0.33325872 0.158034 -0.89499998
0.33471039 0.158034 -0.89499998
0.33428407 0.15715112 -0.88999999
0.3338415 0.15626825 -0.88499999
0.33527696 0.15626825 -0.88499999
0.33404917 0.15503223 -0.87800002
0.33547324 0.15503223 -0.87800002
0.33421135 0.15379621 -0.87099999
0.33292678 0.15256019 -0.86400002
0.33432817 0.15256019 -0.86400002
0.33300951 0.15132417 -0.85699999
0.33439955 0.15132417 -0.85699999
0.33343866 0.15026473 -0.85100001
0.33167145 0.14885212 -0.84299999
0.33303875 0.14885212 -0.84299999
0.33162931 0.14761612 -0.83600003
0.33298528 0.14761612 -0.83600003
0.3311418 0.14620352 -0.82800001
0.3300755 0.14514408 -0.82200003
0.33140874 0.14514408 -0.82200003
0.32990843 0.14390805 -0.815
0.33123034 0.14390805 -0.815
0.33051205 0.14302517 -0.81
0.3301872 0.14231887 -0.80599999
0.33149451 0.14231887 -0.80599999
0.33032441 0.14125943 -0.80000001
0.33162197 0.14125943 -0.80000001
0.33083883 0.14037657 -0.79500002
0.32962164 0.13931711 -0.78899997
0.33090138 0.13931711 -0.78899997
0.33049709 0.13861082 -0.78500003
0.33177033 0.13861082 -0.78500003
0.33134654 0.13790452 -0.78100002
0.33048391 0.13702166 -0.77600002
0.33174255 0.13702166 -0.77600002
0.33171383 0.13649192 -0.773
0.33296761 0.13649192 -0.773
0.33205956 0.13560906 -0.76800001
0.33070129 0.13454962 -0.76200002
0.33193722 0.13454962 -0.76200002
0.33098701 0.13366674 -0.75700003
0.33221483 0.13366674 -0.75700003
0.33168074 0.13296045 -0.75300002
0.33069161 0.13207757 -0.74800003
0.33190483 0.13207757 -0.74800003
0.33133671 0.13137127 -0.74400002
0.33254343 0.13137127 -0.74400002
0.33150724 0.13048841 -0.73900002
0.3300046 0.12942895 -0.73299998
0.33119351 0.12942895 -0.73299998
0.33011514 0.12854609 -0.72799999
0.33129594 0.12854609 -0.72799999
0.33019325 0.12766321 -0.72299999
0.32907435 0.12678035 -0.71799999
0.33023891 0.12678035 -0.71799999
0.32955724 0.12607405 -0.71399999
0.33071533 0.12607405 -0.71399999
0.32908458 0.1250146 -0.708
0.32790077 0.12413173 -0.70300001
0.32904103 0.12413173 -0.70300001
0.32830256 0.12342543 -0.699
0.32943633 0.12342543 -0.699
0.32867843 0.12271913 -0.69499999
0.32790753 0.12201283 -0.69099998
0.32902831 0.12201283 -0.69099998
0.32871574 0.12148312 -0.68800002
0.32983169 0.12148312 -0.68800002
0.32902348 0.12077682 -0.68400002
0.32868496 0.1202471 -0.68099999
0.32978952 0.1202471 -0.68099999
0.32895049 0.1195408 -0.67699999
0.33004856 0.1195408 -0.67699999
0.32967925 0.11901108 -0.67400002
0.32930017 0.11848135 -0.671
0.33038852 0.11848135 -0.671
0.32999483 0.11795162 -0.66799998
0.33107832 0.11795162 -0.66799998
0.33017281 0.11724532 -0.66399997
0.32925433 0.11653904 -0.66000003
0.33032483 0.11653904 -0.66000003
0.32938689 0.11583274 -0.65600002
0.33045089 0.11583274 -0.65600002
0.32949349 0.11512644 -0.65200001
0.3280161 0.11424357 -0.64700001
0.32906553 0.11424357 -0.64700001
0.32807404 0.11353727 -0.64300001
0.32911697 0.11353727 -0.64300001
0.33057711 0.19857106 -1.135
0.33241805 0.19857106 -1.135
0.33072498 0.19647163 -1.123
0.33254647 0.19647163 -1.123
0.33079496 0.19437219 -1.1109999
0.32900459 0.19227277 -1.099
0.33078715 0.19227277 -1.099
0.32924098 0.1903483 -1.0880001
0.33100569 0.1903483 -1.0880001
0.32971182 0.18859875 -1.0779999
0.32930797 0.1873741 -1.071
0.33104512 0.1873741 -1.071
0.33060721 0.18614943 -1.064
0.32920957 0.1843999 -1.054
0.33091915 0.1843999 -1.054
0.33010399 0.18300028 -1.046
0.33180058 0.18300028 -1.046
0.33062768 0.18142571 -1.0369999
0.3294256 0.17985114 -1.028
0.33109298 0.17985114 -1.028
0.33081818 0.17880142 -1.022
0.33247584 0.17880142 -1.022
0.33119106 0.17722686 -1.013
0.32954848 0.17547733 -1.003
0.33117533 0.17547733 -1.003
0.32981589 0.17390276 -0.99400002
0.33142814 0.17390276 -0.99400002
0.32935482 0.17197828 -0.98299998
0.33094922 0.17197828 -0.98299998
0.32983729 0.17057866 -0.97500002
0.32835945 0.1690041 -0.96600002
0.32992628 0.1690041 -0.96600002
0.32840466 0.16742952 -0.95700002
0.32995689 0.16742952 -0.95700002
0.32908428 0.16620484 -0.94999999
0.32784095 0.16480522 -0.94199997
0.32936886 0.16480522 -0.94199997
0.32914039 0.16393046 -0.93699998
0.32818994 0.16270579 -0.93000001
0.32969838 0.16270579 -0.93000001
0.32907 0.16165608 -0.92400002
0.33056873 0.16165608 -0.92400002
0.33027053 0.16078132 -0.91900003
0.32959509 0.1597316 -0.91299999
0.33107597 0.1597316 -0.91299999
0.33073559 0.15885684 -0.90799999
0.33220834 0.15885684 -0.90799999
0.33184364 0.15798208 -0.903
0.33146274 0.15710732 -0.898
0.33291927 0.15710732 -0.898
0.33214167 0.15605761 -0.89200002
0.33358848 0.15605761 -0.89200002
0.33315727 0.15518284 -0.88700002
0.33233261 0.15413313 -0.88099998
0.33376157 0.15413313 -0.88099998
0.33328822 0.15325837 -0.87599999
0.33470905 0.15325837 -0.87599999
0.33344394 0.1520337 -0.86900002
0.33254144 0.15098397 -0.86299998
0.33394119 0.15098397 -0.86299998
0.33223239 0.14958437 -0.85500002
0.33361918 0.14958437 -0.85500002
0.3322632 0.14835969 -0.84799999
0.33167145 0.14748493 -0.84299999
0.33303875 0.14748493 -0.84299999
0.33162931 0.14626028 -0.83600003
0.33298528 0.14626028 -0.83600003
0.3311418 0.14486064 -0.82800001
0.3300755 0.14381094 -0.82200003
0.33140874 0.14381094 -0.82200003
0.33031324 0.14276122 -0.81599998
0.33163676 0.14276122 -0.81599998
0.3309201 0.14188646 -0.81099999
0.3301872 0.14101169 -0.80599999
0.33149451 0.14101169 -0.80599999
0.33073732 0.14013693 -0.801
0.33203653 0.14013693 -0.801
0.33083883 0.13908722 -0.79500002
0.33003944 0.13821246 -0.79000002
0.33132079 0.13821246 -0.79000002
0.33049709 0.1373377 -0.78500003
0.33177033 0.1373377 -0.78500003
0.33134654 0.13663788 -0.78100002
0.33048391 0.13576312 -0.77600002
0.33174255 0.13576312 -0.77600002
0.33171383 0.13523826 -0.773
0.33296761 0.13523826 -0.773
0.33205956 0.1343635 -0.76800001
0.33113527 0.13348874 -0.76300001
0.33237284 0.13348874 -0.76300001
0.33098701 0.13243903 -0.75700003
0.33221483 0.13243903 -0.75700003
0.33212122 0.13191417 -0.75400001
0.33113369 0.1310394 -0.74900001
0.33234856 0.1310394 -0.74900001
0.33178204 0.13033959 -0.745
0.33299041 0.13033959 -0.745
0.33150724 0.12928988 -0.73900002
0.33045483 0.12841512 -0.73400003
0.33164537 0.12841512 -0.73400003
0.33056861 0.12754035 -0.72899997
0.33175102 0.12754035 -0.72899997
0.33064994 0.12666559 -0.72399998
0.32953265 0.12579082 -0.71899998
0.33069885 0.12579082 -0.71899998
0.32955724 0.12491606 -0.71399999
0.33071533 0.12491606 -0.71399999
0.32954937 0.1240413 -0.70899999
0.32790077 0.12299159 -0.70300001
0.32904103 0.12299159 -0.70300001
0.32830256 0.12229177 -0.699
0.32943633 0.12229177 -0.699
0.32867843 0.12159196 -0.69499999
0.32790753 0.12089215 -0.69099998
0.32902831 0.12089215 -0.69099998
0.32871574 0.1203673 -0.68800002
0.32983169 0.1203673 -0.68800002
0.32902348 0.11966749 -0.68400002
0.32868496 0.11914263 -0.68099999
0.32978952 0.11914263 -0.68099999
0.32895049 0.11844282 -0.67699999
0.33004856 0.11844282 -0.67699999
0.32967925 0.11791797 -0.67400002
0.32930017 0.11739311 -0.671
0.33038852 0.11739311 -0.671
0.32999483 0.11686825 -0.66799998
0.33107832 0.11686825 -0.66799998
0.33017281 0.11616844 -0.66399997
0.32925433 0.11546864 -0.66000003
0.33032483 0.11546864 -0.66000003
0.32938689 0.11476883 -0.65600002
0.33045089 0.11476883 -0.65600002
0.32949349 0.11406901 -0.65200001
0.3280161 0.11319425 -0.64700001
0.32906553 0.11319425 -0.64700001
0.32807404 0.11249444 -0.64300001
0.32911697 0.11249444 -0.64300001
0.33192217 0.19863692 -1.146
0.33057711 0.19673029 -1.135
0.33241805 0.19673029 -1.135
0.33131397 0.19499698 -1.125
0.3331387 0.19499698 -1.125
0.33079496 0.19257034 -1.1109999
0.32900459 0.19049038 -1.099
0.33078715 0.19049038 -1.099
0.3298462 0.18893041 -1.09
0.33161417 0.18893041 -1.09
0.33032358 0.1871971 -1.08
0.32992291 0.18598378 -1.073
0.33166331 0.18598378 -1.073
0.33060721 0.1844238 -1.064
0.32920957 0.1826905 -1.054
0.33091915 0.1826905 -1.054
0.33010399 0.18130386 -1.046
0.33180058 0.18130386 -1.046
0.33062768 0.17974387 -1.0369999
0.3294256 0.1781839 -1.028
0.33109298 0.1781839 -1.028
0.33081818 0.17714392 -1.022
0.33247584 0.17714392 -1.022
0.33119106 0.17558394 -1.013
0.32954848 0.17385064 -1.003
0.33117533 0.17385064 -1.003
0.32981589 0.17229067 -0.99400002
0.33142814 0.17229067 -0.99400002
0.32935482 0.17038402 -0.98299998
0.33094922 0.17038402 -0.98299998
0.32835945 0.1674374 -0.96600002
0.32992628 0.1674374 -0.96600002
0.32840466 0.16587743 -0.95700002
0.32995689 0.16587743 -0.95700002
0.32908428 0.16466412 -0.94999999
0.32784095 0.16327746 -0.94199997
0.32936886 0.16327746 -0.94199997
0.32914039 0.16241081 -0.93699998
0.32818994 0.1611975 -0.93000001
0.32969838 0.1611975 -0.93000001
0.32907 0.16015752 -0.92400002
0.33056873 0.16015752 -0.92400002
0.33027053 0.15929087 -0.91900003
0.32959509 0.15825088 -0.91299999
0.33107597 0.15825088 -0.91299999
0.33073559 0.15738423 -0.90799999
0.33220834 0.15738423 -0.90799999
0.33184364 0.15651758 -0.903
0.33146274 0.15565093 -0.898
0.33291927 0.15565093 -0.898
0.33214167 0.15461095 -0.89200002
0.33358848 0.15461095 -0.89200002
0.33315727 0.1537443 -0.88700002
0.33233261 0.1527043 -0.88099998
0.33376157 0.1527043 -0.88099998
0.33328822 0.15183765 -0.87599999
0.33470905 0.15183765 -0.87599999
0.33344394 0.15062433 -0.86900002
0.33254144 0.14958434 -0.86299998
0.33394119 0.14958434 -0.86299998
0.33223239 0.14819771 -0.85500002
0.33361918 0.14819771 -0.85500002
0.3322632 0.14698438 -0.84799999
0.33167145 0.14611773 -0.84299999
0.33303875 0.14611773 -0.84299999
0.33162931 0.14490442 -0.83600003
0.33298528 0.14490442 -0.83600003
0.33154172 0.14369111 -0.829
0.33087859 0.14282446 -0.824
0.3322151 0.14282446 -0.824
0.33071801 0.14161113 -0.81699997
0.33204317 0.14161113 -0.81699997
0.33132812 0.14074448 -0.81199998
0.33100656 0.14005117 -0.80800003
0.33231711 0.14005117 -0.80800003
0.3311502 0.13901117 -0.80199999
0.33245105 0.13901117 -0.80199999
0.33167112 0.13814452 -0.79699999
0.33045721 0.13710454 -0.79100001
0.3317402 0.13710454 -0.79100001
0.3309181 0.13623789 -0.78600001
0.33219296 0.13623789 -0.78600001
0.33134654 0.13537124 -0.78100002
0.33090979 0.13467792 -0.77700001
0.33217004 0.13467792 -0.77700001
0.33171383 0.1339846 -0.773
0.33296761 0.1339846 -0.773
0.33205956 0.13311794 -0.76800001
0.33113527 0.13225129 -0.76300001
0.33237284 0.13225129 -0.76300001
0.33142424 0.13138463 -0.75800002
0.3326537 0.13138463 -0.75800002
0.33212122 0.1306913 -0.75400001
0.33157578 0.12999798 -0.75
0.33279228 0.12999798 -0.75
0.33222738 0.12930466 -0.74599999
0.33343735 0.12930466 -0.74599999
0.3324044 0.12843801 -0.741
0.33045483 0.1272247 -0.73400003
0.33164537 0.1272247 -0.73400003
0.33056861 0.12635803 -0.72899997
0.33175102 0.12635803 -0.72899997
0.33064994 0.12549138 -0.72399998
0.32953265 0.12462473 -0.71899998
0.33069885 0.12462473 -0.71899998
0.32955724 0.12375808 -0.71399999
0.33071533 0.12375808 -0.71399999
0.32954937 0.12289143 -0.70899999
0.32790077 0.12185144 -0.70300001
0.32904103 0.12185144 -0.70300001
0.32830256 0.12115812 -0.699
0.32943633 0.12115812 -0.699
0.32867843 0.1204648 -0.69499999
0.32790753 0.11977147 -0.69099998
0.32902831 0.11977147 -0.69099998
0.32823795 0.11907815 -0.68699998
0.32935226 0.11907815 -0.68699998
0.32902348 0.11855817 -0.68400002
0.32820231 0.11786484 -0.68000001
0.32930523 0.11786484 -0.68000001
0.32895049 0.11734485 -0.67699999
0.33004856 0.11734485 -0.67699999
0.32967925 0.11682486 -0.67400002
0.32930017 0.11630487 -0.671
0.33038852 0.11630487 -0.671
0.32999483 0.11578487 -0.66799998
0.33107832 0.11578487 -0.66799998
0.33017281 0.11509155 -0.66399997
0.32925433 0.11439823 -0.66000003
0.33032483 0.11439823 -0.66000003
0.32938689 0.1137049 -0.65600002
0.33045089 0.1137049 -0.65600002
0.32949349 0.11301158 -0.65200001
0.3280161 0.11214493 -0.64700001
0.32906553 0.11214493 -0.64700001
0.32807404 0.11145161 -0.64300001
0.32911697 0.11145161 -0.64300001
0.33192769 0.19901054 -1.159
0.33063939 0.19712172 -1.148
0.33192217 0.19677831 -1.146
0.33057711 0.19488952 -1.135
0.33241805 0.19488952 -1.135
0.33131397 0.19317243 -1.125
0.3331387 0.19317243 -1.125
0.33079496 0.1907685 -1.1109999
0.32900459 0.18870799 -1.099
0.33078715 0.18870799 -1.099
0.3298462 0.18716262 -1.09
0.33161417 0.18716262 -1.09
0.33032358 0.18544553 -1.08
0.32992291 0.18424356 -1.073
0.33166331 0.18424356 -1.073
0.33060721 0.18269819 -1.064
0.32920957 0.1809811 -1.054
0.33091915 0.1809811 -1.054
0.32947284 0.17926402 -1.044
0.33116618 0.17926402 -1.044
0.32999 0.17771862 -1.035
0.3294256 0.17651667 -1.028
0.33109298 0.17651667 -1.028
0.33017081 0.175143 -1.02
0.33182523 0.175143 -1.02
0.3308641 0.17376933 -1.012
0.32954848 0.17222396 -1.003
0.33117533 0.17222396 -1.003
0.32915229 0.17033514 -0.99199998
