# .PCD v0.7 - Point Cloud Data file format
VERSION 0.7
FIELDS x y z
SIZE 4 4 4
TYPE F F F
COUNT 1 1 1
WIDTH 1312
HEIGHT 1
VIEWPOINT 0 0 0 1 0 0 0
POINTS 1312
DATA ascii
0.41774243 0.27186736 -0.0025003031
0.41765875 0.2739085 -0.0025499882
0.41852376 0.27572966 -0.002215778
0.41844019 0.27776819 -0.0022653996
0.41930556 0.27958161 -0.0019309802
0.42017111 0.28138986 -0.0015964638
0.42008775 0.28342327 -0.0016459605
0.4209536 0.28522381 -0.0013112489
0.42087033 0.28725469 -0.0013606835
0.42173651 0.28904748 -0.0010257835
0.42260289 0.29083514 -0.00069075846
0.42346951 0.29261768 -0.00035558737
0.42433631 0.29439503 -2.0311652e-05
0.42425349 0.2964156 -6.9495189e-05
0.42512059 0.29818526 0.00026596093
0.42503789 0.3002032 0.00021684045
0.42590532 0.30196515 0.00055249152
0.42582271 0.30398056 0.000503433
0.42669043 0.30573475 0.00083927281
0.42755845 0.30748379 0.0011752588
0.41088742 -0.099428818 -0.0045980136
0.41173032 -0.09708257 -0.0042740745
0.41257343 -0.094741486 -0.0039500245
0.41341677 -0.092405505 -0.0036258071
0.4142603 -0.090074703 -0.003301492
0.41510403 -0.087749057 -0.0029770513
0.415948 -0.085428543 -0.0026525003
0.41586244 -0.08334107 -0.0027033128
0.41670668 -0.081028275 -0.0023785592
0.41755122 -0.078720637 -0.0020536522
0.41746587 -0.076638296 -0.0021043399
0.41738051 -0.074555978 -0.0021550269
0.41729516 -0.072473653 -0.0022057139
0.4172098 -0.07039132 -0.0022564013
0.41712445 -0.068308979 -0.002307089
0.4170391 -0.066226654 -0.002357776
0.41695374 -0.064144321 -0.0024084635
0.41593757 -0.062264156 -0.0028353084
0.4158521 -0.060179252 -0.0028860585
0.41576666 -0.058094345 -0.0029368084
0.41568118 -0.056009442 -0.0029875583
0.41466454 -0.054116394 -0.0034146889
0.41457897 -0.052028906 -0.0034655016
0.41449341 -0.049941435 -0.0035163141
0.41347632 -0.048038088 -0.0039436808
0.41339064 -0.045948025 -0.0039945561
0.41330498 -0.043857984 -0.0040454315
0.4132193 -0.041767936 -0.0040963064
0.41313365 -0.039677873 -0.0041471818
0.41304797 -0.037587829 -0.0041980571
0.41296229 -0.035497773 -0.0042489325
0.41380888 -0.033241618 -0.003922815
0.41372332 -0.031154137 -0.0039736275
0.41363776 -0.029066658 -0.00402444
0.41355219 -0.026979186 -0.0040752525
0.41346663 -0.024891706 -0.0041260654
0.41338107 -0.022804232 -0.0041768774
0.41422838 -0.020566087 -0.0038503071
0.41414294 -0.018481184 -0.0039010572
0.41405746 -0.016396286 -0.003951807
0.41397202 -0.014311381 -0.0040025567
0.41481993 -0.0120861 -0.003675645
0.41473457 -0.010003771 -0.0037263324
0.41464922 -0.0079214405 -0.0037770197
0.41549748 -0.005706463 -0.0034498996
0.41541222 -0.0036267079 -0.0035005242
0.41532698 -0.001546953 -0.0035511488
0.41617566 0.00065773213 -0.0032237638
0.41609055 0.0027349084 -0.0032743257
0.41693956 0.0049318685 -0.0029467526
0.4168545 0.0070064813 -0.0029972522
0.41676947 0.0090810824 -0.0030477513
0.4176189 0.011267751 -0.0027199276
0.41753396 0.01333978 -0.0027703643
0.41744903 0.015411814 -0.002820801
0.41736412 0.017483847 -0.0028712375
0.41914901 0.019759409 -0.0021645136
0.41719425 0.021627916 -0.0029721109
0.41710931 0.023699949 -0.0030225476
0.41702437 0.025771983 -0.0030729843
0.41693944 0.027844017 -0.0031234208
0.41685453 0.029916046 -0.0031738575
0.41676959 0.031988084 -0.0032242942
0.41668466 0.034060117 -0.0032747309
0.41659972 0.036132149 -0.0033251673
0.41557896 0.038125586 -0.0037547415
0.41549391 0.040200196 -0.0038052408
0.41540888 0.042274803 -0.0038557402
0.41532385 0.04434941 -0.0039062395
0.4152388 0.046424016 -0.0039567389
0.41515377 0.048498623 -0.004007238
0.41413227 0.050510079 -0.004437251
0.41404712 0.05258726 -0.004487813
0.41396198 0.05466444 -0.004538375
0.41387683 0.056741621 -0.0045889369
0.41379169 0.058818806 -0.0046394989
0.41370654 0.060895987 -0.0046900609
0.4145585 0.063020878 -0.0043607336
0.41447347 0.065095484 -0.0044112327
0.41438845 0.067170091 -0.0044617318
0.41524082 0.069284685 -0.0041321539
0.41515589 0.071356714 -0.0041825906
0.41507095 0.07342875 -0.0042330273
0.41498604 0.075500786 -0.004283464
0.41490111 0.077572815 -0.0043339008
0.41481617 0.079644851 -0.0043843375
0.41660741 0.081765972 -0.0036738538
0.41652268 0.08383286 -0.0037241653
0.41643795 0.08589974 -0.0037744767
0.41635326 0.087966628 -0.0038247879
0.41626853 0.090033516 -0.0038750994
0.4161838 0.092100397 -0.0039254106
0.41609907 0.094167285 -0.003975722
0.41601437 0.096234173 -0.0040260334
0.41592965 0.098301053 -0.0040763444
0.41584492 0.10036794 -0.0041266559
0.41576022 0.10243483 -0.0041769673
0.41567549 0.10450171 -0.0042272788
0.41559076 0.1065686 -0.0042775902
0.41644546 0.10862657 -0.003946634
0.41636086 0.11069088 -0.0039968826
0.41721588 0.11274112 -0.003665738
0.41713136 0.11480286 -0.0037159242
0.41798678 0.11684538 -0.0033845783
0.41790235 0.11890455 -0.0034347018
0.418758 0.12093934 -0.0031031813
0.41867372 0.12299594 -0.0031532422
0.41952971 0.12502302 -0.0028215339
0.41944551 0.12707704 -0.002871532
0.41936129 0.12913105 -0.00292153
0.4192771 0.13118507 -0.0029715281
0.42013362 0.13319927 -0.0026395065
0.42004952 0.13525072 -0.0026894421
0.41996545 0.13730216 -0.0027393773
0.41988134 0.1393536 -0.002789313
0.41979727 0.14140505 -0.0028392484
0.42065439 0.14340381 -0.0025068508
0.4205704 0.14545268 -0.0025567238
0.42048645 0.14750154 -0.0026065966
0.42040247 0.14955041 -0.0026564691
0.42031848 0.15159929 -0.0027063419
0.4202345 0.15364815 -0.0027562147
0.42015052 0.15569702 -0.0028060875
0.42006654 0.15774588 -0.0028559603
0.41998255 0.15979475 -0.0029058331
0.41989857 0.16184361 -0.0029557056
0.41981459 0.16389249 -0.0030055786
0.42067304 0.16586037 -0.0026724157
0.42058915 0.16790666 -0.0027222256
0.42050529 0.16995294 -0.0027720358
0.41947865 0.17208797 -0.0032050698
0.42033753 0.17404553 -0.0028716561
0.42025366 0.17609182 -0.002921466
0.42016977 0.17813814 -0.0029712764
0.42008591 0.18018442 -0.0030210863
0.41905874 0.18233229 -0.0034544335
0.41991815 0.18427701 -0.0031207069
0.41983429 0.1863233 -0.0031705168
0.41975039 0.18836959 -0.0032203267
0.41966653 0.19041589 -0.0032701371
0.42052642 0.19234774 -0.0029361106
0.42044264 0.19439144 -0.0029858579
0.42035887 0.19643517 -0.0030356057
0.42027509 0.19847889 -0.0030853529
0.42019132 0.20052262 -0.0031351005
0.42105183 0.20243903 -0.0028007056
0.42096817 0.20448016 -0.0028503903
0.42088449 0.2065213 -0.0029000747
0.42080083 0.20856246 -0.0029497601
0.42071718 0.21060361 -0.0029994447
0.42063349 0.21264474 -0.0030491294
0.42054984 0.21468589 -0.0030988143
0.42046618 0.21672703 -0.0031484989
0.41943738 0.21891609 -0.0035828275
0.4193536 0.22095981 -0.003632575
0.41926983 0.22300354 -0.0036823223
0.41824064 0.22520289 -0.0041169091
0.41815674 0.22724918 -0.004166719
0.41807288 0.22929548 -0.0042165294
0.41798902 0.23134176 -0.0042663394
0.41790512 0.23338805 -0.0043161493
0.41782126 0.23543435 -0.0043659597
0.41773736 0.23748064 -0.0044157696
0.41859967 0.2393533 -0.0040803021
0.41851589 0.24139702 -0.0041300496
0.41937852 0.24326193 -0.0037944012
0.41929486 0.24530308 -0.0038440863
0.42015779 0.24716029 -0.0035082432
0.42007422 0.24919885 -0.003557865
0.42093754 0.25104833 -0.0032218124
0.42085409 0.25308433 -0.0032713721
0.42171767 0.25492609 -0.0029351602
0.42163432 0.2569595 -0.0029846567
0.42155096 0.25899294 -0.0030341542
0.4214676 0.26102635 -0.0030836507
0.42138427 0.26305977 -0.0031331475
0.42224848 0.26488608 -0.0027965524
0.42216522 0.26691693 -0.0028459865
0.42302975 0.26873553 -0.0025092037
0.4229466 0.27076381 -0.002558575
0.42286345 0.27279207 -0.0026079465
0.42372841 0.27460039 -0.0022709202
0.42459363 0.27640352 -0.0019337396
0.42451069 0.27842665 -0.0019829858
0.42442778 0.28044978 -0.0020322325
0.42529333 0.28224263 -0.0016948225
0.42521051 0.28426319 -0.0017440063
0.42607641 0.28604832 -0.0014064086
0.4269425 0.2878283 -0.0010686928
0.42780882 0.28960314 -0.00073084462
0.42772633 0.29161599 -0.00077984051
0.42859301 0.29338306 -0.00044178253
0.42851061 0.29539332 -0.00049071573
0.4284282 0.2974036 -0.00053964887
0.4283458 0.29941383 -0.00058858137
0.43016252 0.30091208 0.00013704289
0.43102998 0.30265859 0.00047558045
0.4309479 0.30466112 0.00042683567
0.43276563 0.30613619 0.0011530451
0.43268377 0.30813357 0.0011044254
0.41600832 -0.098229393 -0.0047600302
0.41685116 -0.095895983 -0.0044332822
0.41769418 -0.093567722 -0.004106394
0.4185375 -0.091244571 -0.0037793682
0.41938096 -0.088926598 -0.0034522298
0.42022464 -0.086613789 -0.0031249658
0.42013949 -0.084536597 -0.003175528
0.42098349 -0.082231499 -0.0028480762
0.4218277 -0.079931542 -0.0025205137
0.42360151 -0.077413961 -0.0018146446
0.42351678 -0.075347073 -0.0018649559
0.42343208 -0.073280185 -0.0019152673
0.42334735 -0.071213298 -0.0019655786
0.42326263 -0.06914641 -0.0020158901
0.4231779 -0.067079522 -0.0020662015
0.4230932 -0.065012649 -0.0021165125
0.42300847 -0.062945746 -0.0021668244
0.42106333 -0.061283246 -0.0029744436
0.4209784 -0.059211217 -0.0030248803
0.42089346 -0.057139177 -0.003075317
0.41987801 -0.055261608 -0.0035045671
0.41979298 -0.053187005 -0.0035550664
0.41970795 -0.051112384 -0.003605566
0.4196229 -0.049037788 -0.0036560651
0.41860694 -0.047147345 -0.0040856432
0.41852179 -0.045070156 -0.0041362052
0.41843665 -0.042992976 -0.0041867672
0.4183515 -0.040915798 -0.0042373291
0.41826639 -0.03883861 -0.0042878911
0.41818124 -0.036761437 -0.0043384531
0.4180961 -0.034684248 -0.004389015
0.4189426 -0.032440923 -0.0040600598
0.41885757 -0.03036632 -0.0041105589
0.41877255 -0.028291708 -0.0041610585
0.41868749 -0.026217103 -0.0042115576
0.41953456 -0.023986645 -0.0038823034
0.41944963 -0.021914616 -0.0039327401
0.41936469 -0.019842578 -0.0039831768
0.41927975 -0.01777054 -0.0040336135
0.41919485 -0.015698519 -0.0040840497
0.41910991 -0.01362648 -0.0041344864
0.42089048 -0.011273621 -0.0034246077
0.42080575 -0.0092067402 -0.0034749189
0.42072102 -0.0071398532 -0.0035252303
0.42156935 -0.0049402812 -0.0031952246
0.42148474 -0.002875976 -0.0032454729
0.42233336 -0.00068412116 -0.0029152648
0.42224887 0.0013776164 -0.0029654508
0.42216435 0.0034393503 -0.0030156367
0.42301345 0.0056209154 -0.0026851643
0.42292905 0.007680078 -0.0027352876
0.42377841 0.0098539079 -0.0024046407
0.42369413 0.011910499 -0.0024547013
0.42454383 0.014076608 -0.0021238665
0.42445964 0.016130621 -0.0021738645
0.42437544 0.018184641 -0.0022238626
0.42429125 0.020238653 -0.0022738606
0.42420706 0.02229267 -0.0023238587
0.42318833 0.024250036 -0.0027550657
0.42403868 0.026400702 -0.002423855
0.42301974 0.028363215 -0.0028551873
0.42293546 0.030419802 -0.002905248
0.42191622 0.032390039 -0.0033367684
0.42183182 0.034449201 -0.0033868917
0.42174742 0.036508366 -0.003437015
0.42166302 0.038567528 -0.0034871383
0.42064318 0.040550631 -0.0039189854
0.42055866 0.042612366 -0.0039691716
0.42047417 0.044674106 -0.0040193577
0.42038965 0.046735842 -0.0040695434
0.42030513 0.048797581 -0.0041197296
0.41928476 0.050796129 -0.0045519392
0.41920012 0.052860439 -0.0046021878
0.41911551 0.054924753 -0.0046524364
0.4190309 0.056989063 -0.0047026854
0.4189463 0.059053376 -0.004752934
0.41979808 0.061168008 -0.0044208458
0.41971359 0.06322974 -0.0044710319
0.41962907 0.065291479 -0.0045212181
0.42048135 0.067395821 -0.0041888659
0.42039695 0.069454983 -0.0042389892
0.42124948 0.071551599 -0.0039064623
0.4211652 0.073608182 -0.0039565233
0.42108089 0.075664774 -0.0040065842
0.42099658 0.077721365 -0.0040566446
0.4209123 0.079777956 -0.0041067055
0.42082798 0.08183454 -0.004156766
0.42168126 0.08391314 -0.0038238009
0.42159706 0.085967153 -0.003873799
0.42151287 0.088021174 -0.003923797
0.42142868 0.090075187 -0.0039737951
0.42134449 0.092129201 -0.0040237932
0.4212603 0.094183221 -0.0040737912
0.42117611 0.096237235 -0.0041237893
0.42109191 0.098291248 -0.0041737873
0.42100772 0.10034527 -0.0042237854
0.42092353 0.10239928 -0.0042737839
0.42083934 0.1044533 -0.0043237815
0.42075515 0.10650731 -0.00437378
0.42160979 0.10855245 -0.00404
0.42152572 0.11060389 -0.0040899357
0.42238069 0.1126413 -0.0037559823
0.4222967 0.11469017 -0.0038058551
0.42315203 0.11671986 -0.0034716714
0.42306817 0.11876616 -0.0035214815
0.42392376 0.12078812 -0.0031871379
0.42383999 0.12283184 -0.0032368854
0.42469591 0.12484609 -0.0029023685
0.42461222 0.12688723 -0.002952053
0.42452857 0.12892838 -0.0030017381
0.42444491 0.13096952 -0.0030514228
0.42530134 0.1329709 -0.0027165778
0.42521778 0.13500948 -0.0027662001
0.42513421 0.13704805 -0.0028158224
0.42599115 0.13903913 -0.0024807132
0.4259077 0.14107513 -0.0025302728
0.42582422 0.14311112 -0.0025798322
0.42574078 0.14514711 -0.0026293916
0.42565733 0.14718312 -0.0026789512
0.42557389 0.14921913 -0.0027285106
0.42549041 0.15125512 -0.00277807
0.42540696 0.15329112 -0.0028276297
0.42532352 0.15532711 -0.0028771891
0.42524007 0.15736312 -0.0029267487
0.42515659 0.15939911 -0.0029763081
0.42507315 0.16143511 -0.0030258675
0.4249897 0.1634711 -0.0030754271
0.42490625 0.16550711 -0.0031249865
0.42482278 0.1675431 -0.0031745462
0.42473933 0.16957909 -0.0032241056
0.42465588 0.17161509 -0.0032736652
0.42457244 0.17365108 -0.0033232246
0.42543128 0.17559327 -0.0029869387
0.42534795 0.1776267 -0.0030364357
0.42432207 0.17975909 -0.003471903
0.42423862 0.18179508 -0.0035214624
0.42415515 0.1838311 -0.0035710223
0.42501456 0.18576039 -0.003234423
0.4249312 0.18779382 -0.0032839198
0.42484784 0.18982725 -0.0033334168
0.42476451 0.19186068 -0.0033829135
0.42562443 0.1937771 -0.0030460011
0.42554119 0.19580795 -0.0030954352
0.42545792 0.1978388 -0.0031448696
0.42537469 0.19986966 -0.0031943037
0.42529145 0.20190051 -0.0032437381
0.42615202 0.2038015 -0.0029064496
0.42606887 0.20582977 -0.0029558209
0.42598572 0.20785806 -0.0030051928
0.42590261 0.20988633 -0.0030545641
0.42581946 0.2119146 -0.0031039356
0.42573631 0.21394287 -0.0031533071
0.42565319 0.21597116 -0.0032026789
0.42462552 0.21814731 -0.0036392114
0.42454228 0.22017816 -0.0036886455
0.42445901 0.22220901 -0.0037380799
0.42343092 0.22439545 -0.004174863
0.42334756 0.22642888 -0.00422436
0.42326424 0.22846229 -0.0042738565
0.42318088 0.23049572 -0.0043233535
0.42309752 0.23252913 -0.0043728501
0.42301419 0.23456258 -0.0044223475
0.42293084 0.23659599 -0.0044718441
0.42284748 0.23862942 -0.0045213411
0.42370984 0.24048665 -0.0041829874
0.4236266 0.2425175 -0.0042324215
0.42354333 0.24454834 -0.0042818557
0.42440611 0.2463953 -0.0039432519
0.42432299 0.24842358 -0.0039926232
0.42518607 0.2502628 -0.0036538457
0.42510304 0.25228849 -0.0037031546
0.4259665 0.25411999 -0.0033641465
0.42588356 0.25614312 -0.0034133927
0.42580065 0.25816625 -0.0034626389
0.42666447 0.25998744 -0.0031234082
0.42658165 0.26200801 -0.003172592
0.42649883 0.26402855 -0.0032217752
0.42736307 0.26583946 -0.0028823088
0.42728037 0.26785746 -0.00293143
0.42719764 0.26987541 -0.0029805505
0.42806232 0.27167603 -0.0026408187
0.42797971 0.27369145 -0.0026898773
0.42884469 0.27548432 -0.0023499571
0.4287622 0.27749717 -0.0023989531
0.42962754 0.27928233 -0.0020588245
0.42954516 0.28129256 -0.0021077569
0.43041077 0.28307003 -0.0017674688
0.43032849 0.28507772 -0.0018163393
0.43119442 0.28684741 -0.001475855
0.43206057 0.28861201 -0.0011352538
0.43197849 0.29061455 -0.0011839989
0.432845 0.29237139 -0.00084318058
0.43276304 0.29437134 -0.00089186302
0.43268105 0.29637131 -0.00094054546
0.43354794 0.29811785 -0.00059950474
0.43441504 0.29985929 -0.00025833215
0.43528235 0.30159554 8.2958555e-05
0.43520069 0.30358776 3.446449e-05
0.4360683 0.30531633 0.00037595051
0.43598676 0.30730599 0.00032751838
0.43590519 0.30929565 0.00027908699
0.42028078 -0.099355318 -0.0052264356
0.42019555 -0.097275555 -0.0052770604
0.42103821 -0.094952404 -0.0049475371
0.42188108 -0.09263441 -0.0046179029
0.42272419 -0.090321526 -0.0042881295
0.42449576 -0.087778136 -0.0035778813
0.4253394 -0.085478149 -0.0032477942
0.42618322 -0.083183296 -0.0029175822
0.42702731 -0.080893591 -0.0025872311
0.42787156 -0.078609049 -0.0022567681
0.42778727 -0.076552458 -0.0023068287
0.42863184 -0.074275635 -0.0019761922
0.42854765 -0.072221622 -0.0020261903
0.42846346 -0.070167609 -0.0020761883
0.42837924 -0.06811358 -0.0021261866
0.42829505 -0.066059567 -0.0021761847
0.42821085 -0.064005554 -0.0022261827
0.42719719 -0.062156335 -0.0026572538
0.42711288 -0.060099743 -0.0027073144
0.42702857 -0.058043156 -0.0027573751
0.42601445 -0.056183629 -0.0031887116
0.42593005 -0.054124467 -0.0032388349
0.42584565 -0.052065313 -0.0032889582
0.42483106 -0.0501955 -0.0037205585
0.42474654 -0.048133761 -0.0037707447
0.42466205 -0.046072032 -0.0038209304
0.42457753 -0.044010289 -0.0038711166
0.42449304 -0.041948549 -0.0039213025
0.42440853 -0.039886821 -0.0039714887
0.42432401 -0.037825074 -0.0040216749
0.42423952 -0.035763338 -0.0040718606
0.424155 -0.033701599 -0.0041220468
0.42500162 -0.03147367 -0.0037901921
0.42491722 -0.029414508 -0.0038403154
0.42483282 -0.027355338 -0.0038904389
0.42474842 -0.025296183 -0.0039405623
0.42559552 -0.023081131 -0.0036084077
0.42551121 -0.021024544 -0.0036584684
0.4254269 -0.018967949 -0.0037085291
0.42534262 -0.01691136 -0.0037585897
0.42525831 -0.014854773 -0.0038086504
0.42517403 -0.012798178 -0.0038587113
0.42508972 -0.01074159 -0.003908772
0.42593765 -0.008547131 -0.0035761306
0.42678583 -0.0063578216 -0.0032433495
0.42670172 -0.0043063764 -0.0032932849
0.42661765 -0.0022549387 -0.0033432203
0.42746621 -7.5921736e-05 -0.0030101885
0.42738223 0.0019729484 -0.0030600615
0.42729825 0.004021815 -0.003109934
0.42814732 0.0061905421 -0.0027766384
0.42806342 0.0082368376 -0.0028264485
0.42891276 0.010397833 -0.002492978
0.42882898 0.012441553 -0.0025427255
0.42874521 0.014485274 -0.0025924731
0.42959493 0.016635977 -0.0022587664
0.42857766 0.018572714 -0.0026919679
0.42942762 0.020718267 -0.0023581362
0.42841011 0.022660155 -0.0027914629
0.42832634 0.024703875 -0.0028412102
0.42824259 0.026747594 -0.0028909578
0.42815882 0.02879131 -0.002940705
0.42807505 0.030835031 -0.0029904526
0.42705691 0.032792363 -0.0034241697
0.42697304 0.034838654 -0.0034739799
0.42688918 0.036884949 -0.00352379
0.42587057 0.038852569 -0.0039577712
0.42578658 0.040901437 -0.004007644
0.4257026 0.042950302 -0.0040575168
0.42468363 0.044928223 -0.0044917352
0.42459956 0.046979666 -0.0045416704
0.42451546 0.049031105 -0.0045916061
0.42443138 0.051082548 -0.0046415413
0.42434728 0.053133991 -0.0046914769
0.42426321 0.055185433 -0.0047414121
0.42417911 0.057236873 -0.0047913478
0.42409503 0.059288315 -0.004841283
0.42401093 0.061339758 -0.0048912186
0.42392686 0.063391201 -0.0049411538
0.42477879 0.065487847 -0.004606117
0.42469484 0.067536719 -0.0046559898
0.42554715 0.069625646 -0.0043207519
0.42546326 0.07167194 -0.0043705618
0.42631584 0.073753148 -0.0040351492
0.4262321 0.075796865 -0.0040848968
0.42614833 0.077840589 -0.0041346443
0.42606455 0.079884306 -0.0041843918
0.42598078 0.08192803 -0.0042341389
0.425897 0.083971746 -0.0042838864
0.42581323 0.08601547 -0.0043336339
0.42572945 0.088059187 -0.0043833815
0.42564568 0.090102904 -0.004433129
0.42649934 0.09215837 -0.0040971041
0.42641568 0.094199523 -0.0041467892
0.426332 0.096240662 -0.0041964739
0.42624834 0.098281808 -0.0042461585
0.42616466 0.10032296 -0.0042958437
0.426081 0.10236411 -0.0043455283
0.42599735 0.10440525 -0.004395213
0.42591366 0.10644639 -0.0044448981
0.42676827 0.1084787 -0.0041082948
0.42668471 0.11051727 -0.0041579171
0.42753968 0.11254185 -0.0038211124
0.4274562 0.11457784 -0.0038706718
0.42831144 0.11659471 -0.003533693
0.42822808 0.11862813 -0.0035831898
0.42908362 0.12063727 -0.0032460229
0.42900038 0.12266812 -0.0032954572
0.42985624 0.12466954 -0.0029581168
0.42977309 0.12669781 -0.0030074883
0.42968997 0.12872608 -0.0030568598
0.42960683 0.13075437 -0.0031062313
0.43046322 0.1327429 -0.0027685631
0.43038017 0.13476861 -0.002817872
0.43029714 0.13679431 -0.0028671809
0.43021411 0.13882001 -0.00291649
0.43107107 0.14079569 -0.0025784948
0.43098816 0.14281881 -0.0026277411
0.43090522 0.14484194 -0.0026769871
0.43082231 0.14686507 -0.0027262336
0.43073937 0.1488882 -0.0027754796
0.43065646 0.15091133 -0.002824726
0.43057352 0.15293446 -0.0028739723
0.43049058 0.15495758 -0.0029232185
0.43040767 0.15698071 -0.0029724645
0.43032473 0.15900384 -0.0030217108
0.42930076 0.16110274 -0.0034588876
0.42921773 0.16312844 -0.0035081964
0.4291347 0.16515414 -0.0035575056
0.42905167 0.16717984 -0.0036068142
0.42991012 0.16911948 -0.0032679418
0.42888561 0.17123125 -0.0037054319
0.42880258 0.17325695 -0.0037547408
0.42966133 0.17518887 -0.0034156805
0.42957839 0.177212 -0.003464927
0.42949548 0.17923512 -0.003514173
0.42941254 0.18125825 -0.0035634192
0.42932963 0.18328138 -0.0036126657
0.42924669 0.18530451 -0.0036619117
0.42916375 0.18732762 -0.0037111579
0.42908084 0.18935077 -0.0037604044
0.42994049 0.19125952 -0.0034207937
0.42985767 0.19328007 -0.0034699773
0.42977485 0.19530064 -0.0035191611
0.43063492 0.19719908 -0.0031792999
0.43055221 0.19921705 -0.0032284206
0.43046948 0.20123504 -0.0032775418
0.43038678 0.20325303 -0.0033266626
0.43030405 0.20527101 -0.0033757836
0.43116477 0.20715402 -0.0030355612
0.43108216 0.20916943 -0.0030846195
0.43099955 0.21118483 -0.0031336776
0.42997321 0.21334293 -0.0035722672
0.42989048 0.21536091 -0.0036213882
0.42980778 0.21737888 -0.003670509
0.42972505 0.21939687 -0.0037196302
0.42869818 0.22156784 -0.0041585476
0.42861536 0.22358838 -0.0042077308
0.42853254 0.22560894 -0.0042569144
0.42844972 0.2276295 -0.004306098
0.42742231 0.22981332 -0.0047453288
0.42733938 0.23183644 -0.0047945748
0.42725646 0.23385958 -0.0048438213
0.42717353 0.23588271 -0.0048930673
0.42803562 0.23773226 -0.0045520156
0.4279528 0.23975283 -0.0046011996
0.42786998 0.24177337 -0.0046503828
0.42873245 0.24361263 -0.004309081
0.42864975 0.24563062 -0.0043582022
0.42951256 0.24746214 -0.0040167263
0.42942998 0.24947755 -0.0040657846
0.42934737 0.25149295 -0.004114843
0.43021059 0.2533142 -0.0037731023
0.4301281 0.25532702 -0.0038220978
0.43004557 0.25733986 -0.0038710937
0.42996308 0.25935268 -0.003920089
0.4308269 0.26116106 -0.0035780217
0.4307445 0.26317129 -0.003626954
0.43160859 0.26497197 -0.0032847126
0.4315263 0.26697966 -0.003333583
0.43144399 0.26898733 -0.0033824528
0.4323085 0.2707777 -0.0030399607
0.43222633 0.2727828 -0.0030887686
0.43309113 0.27456543 -0.0027461022
0.43300906 0.27656797 -0.0027948474
0.43387425 0.27834287 -0.0024519507
0.43379229 0.28034282 -0.0025006328
0.43465775 0.28211001 -0.0021575911
0.43457586 0.28410742 -0.002206211
0.43544164 0.28586686 -0.0018629662
0.43630761 0.2876212 -0.001519597
0.43622595 0.28961343 -0.0015680915
0.43709227 0.29136002 -0.0012245479
0.43701071 0.29334968 -0.00127298
0.43692917 0.29533935 -0.0013214118
0.4368476 0.29732901 -0.0013698431
0.43771449 0.29906273 -0.001025944
0.43668449 0.30130836 -0.001466707
0.43850017 0.30277583 -0.00073026889
0.43936753 0.30449668 -0.00038608481
0.44023511 0.3062124 -4.1775696e-05
0.44110292 0.30792293 0.00030267335
0.44197091 0.30962837 0.00064723316
0.42539003 -0.098142311 -0.0053410889
0.42623252 -0.095829412 -0.00500882
0.42707524 -0.093521677 -0.0046764105
0.42791823 -0.091219053 -0.0043438626
0.42876136 -0.088921592 -0.0040112031
0.42960471 -0.086629286 -0.0036784324
0.43137601 -0.084109001 -0.0029626135
0.43129203 -0.082060121 -0.0030124865
0.43213606 -0.079783253 -0.0026793119
0.43298027 -0.077511542 -0.0023460402
0.43289649 -0.075467825 -0.0023957875
0.43281272 -0.073424101 -0.002445535
0.43365735 -0.071162678 -0.0021119982
0.43357366 -0.069121547 -0.0021616828
0.43349001 -0.067080393 -0.0022113677
0.43340635 -0.06503924 -0.0022610526
0.43332267 -0.062998101 -0.0023107373
0.4323101 -0.061161775 -0.00274402
0.43222633 -0.059118055 -0.0027937675
0.43214256 -0.057074342 -0.0028435148
0.43205878 -0.055030614 -0.0028932623
0.43104568 -0.053181432 -0.0033268435
0.43096182 -0.051135145 -0.0033766534
0.42994833 -0.049278237 -0.0038104507
0.42986435 -0.047229376 -0.0038603232
0.42978036 -0.045180511 -0.003910196
0.42969638 -0.043131635 -0.0039600688
0.4296124 -0.041082773 -0.0040099416
0.42952842 -0.039033908 -0.0040598144
0.42944443 -0.036985032 -0.0041096872
0.42936045 -0.034936167 -0.00415956
0.42927647 -0.032887299 -0.0042094328
0.43012303 -0.0306722 -0.0038747548
0.43003917 -0.028625904 -0.0039245649
0.4299553 -0.026579609 -0.0039743748
0.42987141 -0.024533322 -0.0040241848
0.43071845 -0.0223311 -0.0036892216
0.43063468 -0.020287387 -0.0037389689
0.4305509 -0.018243659 -0.0037887166
0.43046716 -0.016199939 -0.0038384639
0.43038338 -0.014156227 -0.0038882112
0.43029961 -0.012112499 -0.0039379587
0.43114737 -0.0099283028 -0.0036025422
0.43106371 -0.0078871576 -0.0036522271
0.4319118 -0.0057106786 -0.0033166227
0.43182826 -0.0036721011 -0.003366245
0.43174469 -0.0016335308 -0.003415867
0.43259326 0.00053265848 -0.0030799985
0.43250981 0.0025686575 -0.0031295579
0.43242636 0.0046046525 -0.0031791173
0.43327528 0.0067605427 -0.0028430263
0.43319196 0.0087939668 -0.0028925231
0.4331086 0.010827387 -0.0029420198
0.43395796 0.012972982 -0.0026056636
0.43387473 0.01500383 -0.0026550977
0.43379149 0.01703468 -0.0027045319
0.43370822 0.019065533 -0.0027539663
0.43455812 0.021198256 -0.0024172966
0.43354174 0.02312723 -0.0028528345
0.43345851 0.025158083 -0.0029022687
0.43337527 0.027188933 -0.002951703
0.43235847 0.029128207 -0.0033874915
0.43227512 0.031161627 -0.0034369882
0.43219176 0.033195056 -0.0034864852
0.43117455 0.035144623 -0.00392251
0.4310911 0.037180621 -0.0039720694
0.43100762 0.039216619 -0.0040216288
0.43092418 0.041252617 -0.0040711882
0.42990637 0.043215051 -0.0045075542
0.42982283 0.045253623 -0.0045571765
0.42973927 0.047292195 -0.0046067988
0.4296557 0.049330767 -0.0046564206
0.42957214 0.051369339 -0.0047060428
0.42948857 0.053407911 -0.0047556651
0.42940503 0.055446483 -0.0048052873
0.42932147 0.057485055 -0.0048549091
0.4292379 0.059523627 -0.0049045314
0.42915434 0.061562199 -0.0049541537
0.42907077 0.063600771 -0.0050037759
0.42992273 0.065684594 -0.0046659024
0.42983928 0.067720592 -0.0047154617
0.43069148 0.069796689 -0.0043774284
0.43060815 0.071830109 -0.004426925
0.4305248 0.073863536 -0.004476422
0.43137741 0.075929336 -0.0041381232
0.43129417 0.077960186 -0.0041875574
0.43121094 0.079991035 -0.0042369915
0.4311277 0.082021885 -0.0042864261
0.43104446 0.084052734 -0.0043358603
0.43096119 0.086083584 -0.0043852944
0.43087795 0.088114433 -0.0044347285
0.43079472 0.090145282 -0.0044841627
0.43071148 0.092176132 -0.0045335968
0.43156517 0.094216198 -0.0041946718
0.43148202 0.096244469 -0.0042440435
0.4313989 0.098272748 -0.0042934148
0.43131575 0.10030103 -0.0043427865
0.4312326 0.1023293 -0.0043921578
0.43114948 0.10435758 -0.0044415295
0.43106633 0.10638585 -0.0044909008
0.43192086 0.10840532 -0.0041514891
0.43183783 0.11043102 -0.004200798
0.43269274 0.11244277 -0.0038611556
0.43260983 0.1144659 -0.0039104018
0.43346497 0.11646993 -0.0035706141
0.43338215 0.11849048 -0.0036197978
0.43423763 0.12048678 -0.0032798073
0.43415493 0.12250476 -0.0033289283
0.4340722 0.12452275 -0.0033780492
0.43492812 0.12650874 -0.0030378229
0.43484551 0.12852415 -0.0030868812
0.4347629 0.13053957 -0.0031359396
0.43468028 0.13255498 -0.0031849977
0.43459767 0.13457038 -0.0032340558
0.43545419 0.13654093 -0.002893439
0.4353717 0.13855377 -0.0029424347
0.4352892 0.1405666 -0.0029914305
0.43520668 0.14257944 -0.0030404259
0.43512419 0.14459227 -0.0030894217
0.4350417 0.1466051 -0.0031384171
0.43495917 0.14861794 -0.0031874129
0.43487668 0.15063077 -0.0032364083
0.43479416 0.15264361 -0.0032854041
0.43471166 0.15465644 -0.0033343995
0.43462917 0.15666927 -0.0033833953
0.43454665 0.15868211 -0.003432391
0.43446416 0.16069493 -0.0034813865
0.43438163 0.16270776 -0.0035303819
0.43429914 0.16472061 -0.0035793779
0.43421665 0.16673343 -0.0036283734
0.43413413 0.16874626 -0.0036773689
0.43405163 0.1707591 -0.0037263646
0.43396911 0.17277193 -0.0037753601
0.43388662 0.17478476 -0.0038243558
0.43380412 0.1767976 -0.0038733513
0.4337216 0.17881042 -0.003922347
0.43458062 0.18072177 -0.0035802752
0.43355659 0.18283609 -0.0040203384
0.43347409 0.18484892 -0.0040693339
0.4333916 0.18686175 -0.0041183294
0.43425104 0.18876281 -0.0037760073
0.43416864 0.19077308 -0.0038249402
0.43408623 0.19278333 -0.003873873
0.43494603 0.19467412 -0.0035313142
0.43486375 0.1966818 -0.0035801844
0.43478146 0.19868948 -0.0036290546
0.43564168 0.20056996 -0.0032862595
0.43555948 0.20257507 -0.0033350673
0.43547732 0.20458017 -0.0033838749
0.43539512 0.20658529 -0.0034326827
0.43531293 0.20859039 -0.0034814901
0.43523073 0.2105955 -0.0035302977
0.43514854 0.21260062 -0.0035791055
0.43506637 0.21460573 -0.0036279133
0.43498418 0.21661083 -0.0036767207
0.43490198 0.21861595 -0.0037255285
0.43387622 0.22077399 -0.0041666278
0.43379393 0.22278167 -0.004215498
0.43371162 0.22478937 -0.0042643687
0.43268543 0.22695774 -0.0047057336
0.43260306 0.22896799 -0.0047546662
0.43252066 0.23097824 -0.0048035993
0.43243825 0.23298851 -0.0048525324
0.43235585 0.23499876 -0.004901465
0.43227345 0.23700902 -0.0049503981
0.43219104 0.23901929 -0.0049993312
0.43305328 0.24085084 -0.0046553309
0.432971 0.24285853 -0.0047042011
0.43288869 0.24486622 -0.0047530718
0.43375134 0.2466875 -0.0044088354
0.43366918 0.2486926 -0.0044576428
0.43358698 0.25069773 -0.0045064506
0.43350479 0.25270283 -0.0045552584
0.43436798 0.25451124 -0.0042106947
0.43428588 0.25651377 -0.0042594397
0.4342038 0.25851631 -0.0043081846
0.43506747 0.2603144 -0.0039633559
0.43498549 0.26231435 -0.004012038
0.4349035 0.26431432 -0.0040607206
0.43576753 0.26610216 -0.0037156558
0.43568566 0.26809952 -0.0037642748
0.43655002 0.26987964 -0.0034190218
0.43646824 0.27187446 -0.0034675794
0.4373329 0.2736468 -0.0031221523
0.43725124 0.27563906 -0.003170647
0.43811622 0.27740371 -0.002825018
0.43803465 0.27939337 -0.0028734494
0.43795311 0.28138304 -0.0029218812
0.43881857 0.28313741 -0.0025759879
0.43873712 0.28512448 -0.0026243567
0.43960282 0.28687114 -0.0022782893
0.44046876 0.2886126 -0.0019321106
0.44038752 0.29059455 -0.0019803543
0.44030628 0.29257649 -0.0020285982
0.44022503 0.29455844 -0.0020768421
0.44109148 0.29628706 -0.0017303358
0.44101036 0.29826641 -0.0017785167
0.44092923 0.30024579 -0.0018266981
0.44274417 0.30170304 -0.0010849892
0.44266325 0.30367726 -0.0011330452
0.44447875 0.3051191 -0.00039098895
0.44534639 0.30681938 -4.379336e-05
0.44621426 0.30851454 0.00030354111
0.42965114 -0.099234149 -0.0057656378
0.43049338 -0.096928947 -0.0054306705
0.43133584 -0.09462887 -0.0050955634
0.4321785 -0.092333958 -0.0047603454
0.43302143 -0.090044178 -0.0044249599
0.43479145 -0.087521225 -0.0037041982
0.43563485 -0.08524432 -0.0033685416
0.4364785 -0.082972564 -0.0030327318
0.43639505 -0.080936566 -0.0030822915
0.43723896 -0.078672536 -0.0027463071
0.43808311 -0.076413654 -0.0024101974
0.43799987 -0.074382804 -0.0024596315
0.43791661 -0.072351947 -0.0025090659
0.43876117 -0.07010337 -0.0021727199
0.43867803 -0.068075098 -0.0022220914
0.43859491 -0.066046819 -0.0022714632
0.43851176 -0.06401854 -0.0023208347
0.43842861 -0.061990276 -0.0023702059
0.43741715 -0.060166851 -0.002805671
0.43733391 -0.058136005 -0.0028551051
0.43725067 -0.056105159 -0.0029045392
0.43716744 -0.054074299 -0.0029539736
0.43615544 -0.052238025 -0.003389766
0.43607208 -0.050204605 -0.0034392627
0.43598875 -0.04817117 -0.0034887597
0.43497634 -0.0463246 -0.0039248029
0.43489286 -0.044288602 -0.0039743623
0.43480942 -0.0422526 -0.0040239217
0.43472597 -0.040216606 -0.0040734815
0.43464252 -0.038180608 -0.0041230409
0.43455905 -0.036144607 -0.0041726003
0.4344756 -0.034108613 -0.0042221597
0.43439215 -0.032072611 -0.0042717196
0.43430871 -0.030036621 -0.0043212785
0.43515524 -0.027836937 -0.0039837281
0.43507192 -0.02580351 -0.0040332251
0.43498856 -0.02377009 -0.0040827217
0.4349052 -0.021736663 -0.0041322187
0.43482187 -0.019703243 -0.0041817152
0.43473852 -0.017669814 -0.0042312122
0.4355858 -0.015488149 -0.0038932231
0.43550256 -0.013457303 -0.0039426573
0.4363502 -0.011283362 -0.0036044945
0.43626705 -0.0092550842 -0.003653866
0.4361839 -0.0072268066 -0.0037032377
0.43703195 -0.0050631654 -0.0033648098
0.4369489 -0.0030374553 -0.0034141187
0.43686587 -0.00101176 -0.0034634275
0.43678284 0.0010139429 -0.0035127364
0.43763146 0.0031647305 -0.003173982
0.43754855 0.0051878546 -0.003223228
0.43746561 0.0072109862 -0.0032724745
0.43831459 0.0093514668 -0.0029334973
0.43823177 0.01137202 -0.0029826807
0.43908107 0.01350478 -0.0026435012
0.43899837 0.015522758 -0.0026926219
0.43891564 0.01754074 -0.0027417429
0.43883294 0.01955872 -0.0027908639
0.43875021 0.021576699 -0.0028399848
0.43866751 0.023594681 -0.0028891056
0.43858477 0.025612662 -0.0029382266
0.4375692 0.027536454 -0.0033761493
0.43748638 0.029557006 -0.003425333
0.43740356 0.031577561 -0.0034745163
0.43638757 0.03351165 -0.0039126752
0.43630463 0.03553478 -0.0039619217
0.43622172 0.037557907 -0.0040111677
0.43613878 0.039581034 -0.0040604142
0.43512219 0.04152799 -0.0044989139
0.43503916 0.043553691 -0.0045482228
0.43495613 0.045579392 -0.0045975316
0.4348731 0.047605097 -0.0046468405
0.43479007 0.049630798 -0.0046961494
0.43470705 0.0516565 -0.0047454583
0.43462402 0.053682204 -0.0047947671
0.43454099 0.055707905 -0.004844076
0.43445796 0.057733607 -0.0048933849
0.4343749 0.059759311 -0.0049426937
0.43429187 0.061785012 -0.0049920026
0.43420884 0.063810714 -0.0050413115
0.43506074 0.065881699 -0.0047006151
0.4349778 0.06790483 -0.0047498611
0.43582997 0.069968089 -0.0044090045
0.43574715 0.07198865 -0.0044581876
0.43566433 0.074009202 -0.0045073712
0.43558151 0.076029755 -0.0045565548
0.43549868 0.078050308 -0.0046057384
0.43541586 0.080070861 -0.0046549221
0.43533304 0.082091421 -0.0047041057
0.43525022 0.084111974 -0.0047532893
0.4351674 0.086132526 -0.0048024729
0.43508458 0.088153079 -0.0048516565
0.43500176 0.090173632 -0.0049008401
0.43491894 0.092194185 -0.0049500233
0.43577245 0.094223991 -0.0046083378
0.43568975 0.096241973 -0.0046574585
0.43560702 0.098259948 -0.0047065797
0.43552431 0.10027793 -0.0047557005
0.43544158 0.10229591 -0.0048048212
0.43629575 0.10431027 -0.0044627739
0.43621314 0.10632568 -0.0045118323
0.4370676 0.10833231 -0.0041695829
0.43698511 0.11034515 -0.0042185783
0.43783996 0.11234406 -0.0038761271
0.43775755 0.11435432 -0.0039250599
0.43861267 0.11634552 -0.0035824345
0.43853036 0.1183532 -0.0036313049
0.43844807 0.12036088 -0.0036801752
0.43930361 0.12234178 -0.0033373134
0.43922141 0.12434689 -0.003386121
0.43913922 0.126352 -0.0034349286
0.43905702 0.12835711 -0.0034837362
0.43991309 0.13032514 -0.0031405468
0.43983102 0.13232768 -0.0031892918
0.43974891 0.13433021 -0.0032380368
0.44060546 0.13628794 -0.0028945829
0.44052348 0.1382879 -0.0029432653
0.43950269 0.14033782 -0.0033842719
0.43942058 0.14234035 -0.0034330166
0.43933851 0.1443429 -0.0034817618
0.43925643 0.14634544 -0.0035305067
0.43917435 0.14834797 -0.0035792517
0.43909225 0.1503505 -0.0036279967
0.43901017 0.15235305 -0.0036767418
0.4389281 0.15435557 -0.0037254866
0.43884602 0.15635812 -0.0037742318
0.4397037 0.15828754 -0.003430089
0.43962175 0.16028748 -0.0034787711
0.43953976 0.16228744 -0.0035274532
0.43945777 0.16428742 -0.003576136
0.43937579 0.16628738 -0.0036248181
0.43929383 0.16828734 -0.0036735004
0.43921185 0.17028731 -0.0037221827
0.43912986 0.17228727 -0.003770865
0.4390479 0.17428723 -0.0038195474
0.43896592 0.17628719 -0.0038682297
0.43888393 0.17828715 -0.0039169122
0.43880197 0.18028711 -0.0039655943
0.43871999 0.18228708 -0.0040142769
0.438638 0.18428704 -0.004062959
0.43855602 0.186287 -0.0041116416
0.43847406 0.18828698 -0.0041603236
0.43933347 0.19017263 -0.0038151292
0.4392516 0.19217002 -0.0038637491
0.43916973 0.19416741 -0.0039123688
0.44002959 0.19604276 -0.003566938
0.43994784 0.19803758 -0.0036154953
0.43986607 0.2000324 -0.0036640523
0.43978429 0.20202722 -0.0037126094
0.43970254 0.20402202 -0.0037611662
0.44056302 0.20588195 -0.0034153454
0.44048136 0.20787421 -0.0034638399
0.44039971 0.20986643 -0.0035123341
0.44031802 0.21185869 -0.0035608287
0.44023636 0.21385092 -0.0036093229
0.43921193 0.21599092 -0.0040525086
0.43913016 0.21798573 -0.0041010655
0.43904841 0.21998055 -0.0041496227
0.43896663 0.22197536 -0.0041981796
0.43794167 0.22412825 -0.0046416642
0.4378598 0.22612563 -0.0046902834
0.43777794 0.22812302 -0.0047389036
0.43769604 0.23012039 -0.0047875228
0.43761417 0.23211779 -0.0048361425
0.43658859 0.2342861 -0.0052800174
0.4365066 0.23628607 -0.0053286999
0.43736857 0.23810995 -0.0049820016
0.4372867 0.24010734 -0.0050306213
0.43720481 0.24210472 -0.005079241
0.43712294 0.24410214 -0.0051278612
0.43798545 0.24591315 -0.0047808639
0.43790367 0.24790795 -0.0048294207
0.43782192 0.24990278 -0.004877978
0.43774015 0.25189757 -0.0049265348
0.43765837 0.25389239 -0.0049750921
0.4385215 0.25568798 -0.0046277046
0.43843985 0.25768021 -0.0046761991
0.43835819 0.25967246 -0.0047246935
0.43922174 0.26145771 -0.0043770699
0.43914017 0.2634474 -0.0044255019
0.4390586 0.26543707 -0.0044739335
0.43897706 0.26742673 -0.0045223651
0.43984118 0.26919913 -0.0041744001
0.43975973 0.27118623 -0.0042227698
0.44062412 0.27295092 -0.0038746302
0.44054279 0.27493542 -0.0039229365
0.4414075 0.27669242 -0.0035746244
0.44227242 0.2784442 -0.0032261715
0.44219127 0.28042361 -0.003274353
0.44305658 0.28216767 -0.0029256986
0.44297555 0.28414446 -0.0029738166
0.4438411 0.28588086 -0.0026249888
0.44470686 0.28761208 -0.0022760499
0.44462603 0.28958371 -0.0023240426
0.44549212 0.29130724 -0.0019749014
0.44541141 0.29327631 -0.0020228319
0.44533068 0.29524538 -0.002070762
0.44619718 0.2969586 -0.0017213846
0.4461166 0.2989251 -0.0017692526
0.44603598 0.30089158 -0.0018171199
0.4478505 0.30233091 -0.0010699527
0.44871771 0.3040261 -0.00072012213
0.44958517 0.30571613 -0.00037018023
0.45045283 0.30740103 -2.0099245e-05
0.45132077 0.30908078 0.00033012134
0.43474874 -0.098007575 -0.0058329566
0.43559089 -0.095715202 -0.0054951515
0.43643329 -0.093427964 -0.0051572355
0.43727595 -0.091145851 -0.0048191668
0.43904501 -0.088627994 -0.0040932591
0.43988815 -0.086358778 -0.0037548903
0.44073147 -0.084094711 -0.0034164104
0.44064844 -0.08206901 -0.0034657193
0.44149214 -0.079812638 -0.003127024
0.44140923 -0.077789523 -0.0031762698
0.4422532 -0.075540893 -0.0028373997
0.44217038 -0.073520355 -0.0028865829
0.44301465 -0.071279436 -0.0025475395
0.44293195 -0.069261454 -0.0025966605
0.44284922 -0.067243494 -0.002645781
0.44276652 -0.065225497 -0.0026949022
0.44268379 -0.063207522 -0.002744023
0.44260108 -0.061189543 -0.002793144
0.44251835 -0.059171561 -0.0028422649
0.44243565 -0.057153583 -0.0028913857
0.44235292 -0.055135604 -0.0029405067
0.44227022 -0.053117618 -0.0029896277
0.44125932 -0.051294245 -0.0034276026
0.4411765 -0.0492737 -0.003476786
0.44109368 -0.047253136 -0.0035259696
0.44101086 -0.045232583 -0.0035751532
0.43999946 -0.043396343 -0.0040134555
0.43991655 -0.041373208 -0.0040627019
0.43983361 -0.039350085 -0.004111948
0.4397507 -0.037326958 -0.0041611944
0.43966776 -0.035303824 -0.0042104409
0.44051394 -0.033109259 -0.0038702544
0.44043112 -0.031088701 -0.003919438
0.4403483 -0.029068148 -0.0039686216
0.44026548 -0.027047595 -0.0040178052
0.44018266 -0.025027042 -0.0040669888
0.44009984 -0.023006488 -0.0041161724
0.44094676 -0.020829935 -0.0037755622
0.44086406 -0.018811958 -0.0038246831
0.44078133 -0.016793972 -0.0038738041
0.44069862 -0.014775994 -0.0039229249
0.44061589 -0.012758017 -0.0039720461
0.44146347 -0.010596906 -0.0036310453
0.44138086 -0.0085814958 -0.0036801037
0.44129825 -0.0065660928 -0.0037291618
0.44214621 -0.0044152746 -0.0033879254
0.44206372 -0.0024024467 -0.0034369209
0.44291207 -0.00025935067 -0.0030954683
0.44282967 0.0017509134 -0.0031444014
0.44274727 0.0037611737 -0.0031933344
0.44266486 0.0057714269 -0.0032422673
0.44351369 0.0079016527 -0.002900515
0.44343141 0.0099093383 -0.0029493852
0.44334909 0.011917019 -0.0029982554
0.44419834 0.014036949 -0.002656267
0.44411615 0.016042056 -0.0027050746
0.44403398 0.018047167 -0.0027538822
0.44395179 0.02005228 -0.00280269
0.44293764 0.021955444 -0.003242607
0.4437874 0.024062498 -0.0029003052
0.44370523 0.026067611 -0.002949113
0.44269076 0.027978495 -0.0033892179
0.44260845 0.02998618 -0.0034380881
0.44159368 0.031904791 -0.0038783958
0.44151127 0.033915047 -0.0039273286
0.44142887 0.035925306 -0.0039762617
0.44134647 0.037935562 -0.0040251943
0.4403311 0.039867036 -0.0044658286
0.44024861 0.04187987 -0.0045148241
0.44016612 0.0438927 -0.0045638201
0.44008359 0.045905534 -0.0046128156
0.4400011 0.047918368 -0.0046618111
0.43991858 0.049931198 -0.0047108065
0.43983608 0.051944032 -0.0047598025
0.43975359 0.053956866 -0.004808798
0.43967107 0.055969696 -0.0048577935
0.43958858 0.05798253 -0.0049067894
0.43950608 0.059995361 -0.0049557849
0.43942356 0.062008195 -0.0050047804
0.43934107 0.064021029 -0.0050537759
0.43925855 0.066033863 -0.0051027718
0.4401105 0.06808944 -0.0047591887
0.4400281 0.070099697 -0.0048081218
0.4408803 0.072147556 -0.0044643646
0.44079798 0.074155241 -0.0045132348
0.43978089 0.076130472 -0.0049549206
0.44063342 0.078170612 -0.0046109753
0.4405511 0.080178291 -0.0046598455
0.44046882 0.082185976 -0.0047087162
0.44038653 0.084193662 -0.0047575864
0.44030425 0.086201347 -0.0048064566
0.44022194 0.088209033 -0.0048553268
0.44013965 0.090216711 -0.0049041971
0.44005737 0.092224397 -0.0049530673
0.44091082 0.094241373 -0.0046085729
0.44082862 0.096246481 -0.0046573803
0.44074646 0.098251589 -0.0047061881
0.44066426 0.1002567 -0.0047549959
0.44058207 0.10226181 -0.0048038033
0.44049987 0.10426692 -0.0048526111
0.4413541 0.10626587 -0.0045076632
0.44127199 0.10826841 -0.0045564082
0.44212657 0.11025964 -0.0042112591
0.44204459 0.1122596 -0.0042599412
0.44289944 0.11424311 -0.0039146324
0.44375449 0.11622147 -0.0035691834
0.44367272 0.11821629 -0.0036177405
0.44359094 0.12021109 -0.0036662973
0.44444641 0.12217917 -0.0033206125
0.44436476 0.12417141 -0.0033691069
0.44522053 0.12613174 -0.0030232193
0.44513899 0.12812142 -0.0030716509
0.44505742 0.13011108 -0.0031200827
0.44497588 0.13210075 -0.0031685145
0.44489431 0.13409042 -0.0032169463
0.44481277 0.13608009 -0.0032653778
0.44473121 0.13806975 -0.0033138094
0.44464967 0.14005941 -0.0033622412
0.4445681 0.14204909 -0.003410673
0.44448656 0.14403875 -0.0034591048
0.44440499 0.14602841 -0.0035075366
0.44432345 0.14801808 -0.0035559682
0.44424188 0.15000775 -0.0036043997
0.44416031 0.15199742 -0.0036528318
0.44407877 0.15398708 -0.0037012633
0.4439972 0.15597676 -0.0037496951
0.44391567 0.15796642 -0.0037981267
0.4438341 0.15995608 -0.0038465583
0.44375256 0.16194575 -0.0038949901
0.44367099 0.16393542 -0.0039434219
0.44358945 0.16592509 -0.0039918534
0.44350788 0.16791475 -0.004040285
0.44342634 0.16990443 -0.004088717
0.44334477 0.17189409 -0.0041371491
0.44326323 0.17388375 -0.0041855806
0.44318166 0.17587343 -0.0042340122
0.44310009 0.17786309 -0.0042824438
0.44301856 0.17985275 -0.0043308758
0.44293699 0.18184242 -0.0043793074
0.44285545 0.18383209 -0.004427739
0.44277388 0.18582176 -0.0044761705
0.44269234 0.18781142 -0.0045246026
0.44261077 0.1898011 -0.0045730346
0.44252923 0.19179074 -0.0046214657
0.44338876 0.193661 -0.0042733718
0.44330731 0.1956481 -0.0043217409
0.44322586 0.19763519 -0.0043701101
0.44408575 0.19949515 -0.0040217936
0.44400442 0.20147967 -0.0040700999
0.44392309 0.20346418 -0.0041184062
0.44384173 0.2054487 -0.0041667125
0.44470215 0.20729581 -0.0038180687
0.44367903 0.20941775 -0.0042633256
0.4435977 0.21140227 -0.0043116324
0.44351634 0.21338677 -0.0043599382
0.44343501 0.2153713 -0.0044082445
0.44335365 0.21735583 -0.0044565513
0.44232991 0.21949321 -0.00490217
0.44224846 0.2214803 -0.0049505387
0.44216701 0.22346741 -0.0049989079
0.4411428 0.22561508 -0.0054448051
0.44106123 0.22760476 -0.0054932367
0.44097969 0.22959442 -0.0055416687
0.44089812 0.23158409 -0.0055901003
0.44081658 0.23357376 -0.0056385323
0.44073501 0.23556343 -0.0056869639
0.44065344 0.23755309 -0.0057353955
0.4405719 0.23954277 -0.0057838275
0.44049034 0.24153242 -0.0058322586
0.4404088 0.24352209 -0.0058806911
0.44032723 0.24551177 -0.0059291227
0.44024569 0.24750142 -0.0059775542
0.44016412 0.24949111 -0.0060259863
0.44102672 0.25128669 -0.0056760744
0.44094527 0.25327379 -0.0057244436
0.44086382 0.25526088 -0.0057728132
0.44078237 0.25724795 -0.0058211819
0.44164544 0.25903073 -0.005470986
0.44156408 0.26101524 -0.0055192919
0.44242749 0.26279026 -0.0051688938
0.44234625 0.26477221 -0.0052171377
0.44320995 0.26653948 -0.0048665656
0.44407392 0.26830164 -0.0045158397
0.44493803 0.27005863 -0.0041650026
0.44485709 0.27203286 -0.0042130584
0.44572154 0.27378213 -0.0038620476
0.44658619 0.27552629 -0.0035108975
0.44650549 0.27749535 -0.0035588278
0.44737044 0.27923176 -0.0032075041
0.44823566 0.28096303 -0.0028560266
0.44815516 0.28292692 -0.0029038312
0.44902065 0.28465047 -0.0025521801
0.44894028 0.28661186 -0.0025999227
0.44980606 0.28832763 -0.0022480972
0.44972578 0.29028642 -0.0022957772
0.45059192 0.29199454 -0.0019437498
0.45051172 0.29395074 -0.0019913667
0.45043156 0.29590693 -0.0020389841
0.45129809 0.29760477 -0.0016867209
0.45121801 0.29955837 -0.0017342748
0.45208493 0.30124846 -0.0013817953
0.452952 0.30293339 -0.0010292038
0.45287213 0.30488184 -0.0010766326
0.45373952 0.30655909 -0.00072386808
0.45555454 0.30795726 2.9321967e-05
0.455475 0.30989805 -1.7919241e-05
0.43992367 -0.09881147 -0.0058257263
0.43984044 -0.096780621 -0.0058751609
0.44068256 -0.094501086 -0.0055345464
0.44152486 -0.092226662 -0.0051938077
0.44329304 -0.089713864 -0.0044627269
0.4441359 -0.087452337 -0.0041216742
0.44497895 -0.085195944 -0.0037804821
0.44582224 -0.082944714 -0.0034391787
0.44573975 -0.080931887 -0.0034881742
0.44565722 -0.078919046 -0.0035371701
0.44650099 -0.076678097 -0.0031955885
0.44641858 -0.074667849 -0.0032445211
0.44726261 -0.072434627 -0.0029027648
0.4471803 -0.070426933 -0.0029516355
0.44709802 -0.068419255 -0.0030005055
0.44701573 -0.066411577 -0.0030493757
0.44693342 -0.064403884 -0.0030982462
0.44685113 -0.06239621 -0.0031471164
0.44676885 -0.060388524 -0.0031959866
0.44668654 -0.058380831 -0.0032448571
0.44660425 -0.056373153 -0.0032937273
0.44652197 -0.054365467 -0.0033425977
0.44643965 -0.052357782 -0.003391468
0.44635737 -0.050350096 -0.0034403382
0.44627509 -0.048342418 -0.0034892084
0.44619277 -0.046334725 -0.0035380789
0.44611049 -0.044327039 -0.0035869493
0.44510019 -0.042503711 -0.0040274486
0.44501781 -0.040493444 -0.0040763817
0.44493541 -0.038483188 -0.0041253143
0.44578132 -0.036296308 -0.0037824304
0.44569904 -0.034288615 -0.0038313009
0.44561672 -0.032280937 -0.0038801709
0.44553444 -0.030273249 -0.0039290413
0.44545215 -0.028265573 -0.0039779115
0.44536984 -0.02625788 -0.0040267818
0.44528756 -0.024250194 -0.0040756525
0.44520527 -0.022242516 -0.0041245222
0.44605213 -0.020078793 -0.0037810891
0.44596994 -0.018073691 -0.0038298965
0.44588774 -0.016068572 -0.0038787043
0.44580555 -0.014063463 -0.0039275121
0.44572338 -0.012058352 -0.0039763195
0.44657087 -0.0099100787 -0.0036325101
0.4464888 -0.0079075359 -0.0036812553
0.44733667 -0.005766978 -0.0033372301
0.44725469 -0.0037670177 -0.0033859124
0.4471727 -0.0017670498 -0.0034345947
0.44709072 0.00023291074 -0.003483277
0.44793907 0.0023605949 -0.003138952
0.4478572 0.004357988 -0.0031875717
0.44777533 0.0063553737 -0.0032361913
0.44769347 0.008352763 -0.003284811
0.44761157 0.010350152 -0.0033334307
0.44846055 0.01246239 -0.0029887441
0.4483788 0.014457208 -0.0030373011
0.44829702 0.016452022 -0.0030858582
0.44821525 0.018446837 -0.0031344153
0.4481335 0.020441651 -0.0031829723
0.44805172 0.022436464 -0.0032315294
0.44796997 0.024431279 -0.0032800862
0.4478882 0.026426097 -0.0033286435
0.44687474 0.028326647 -0.0037710078
0.44679287 0.030324036 -0.0038196275
0.446711 0.032321427 -0.0038682471
0.44662914 0.034318816 -0.0039168671
0.44561514 0.036232237 -0.0043595592
0.44553316 0.0382322 -0.0044082412
0.4454512 0.040232163 -0.0044569238
0.44443673 0.042155877 -0.0048998799
0.44435465 0.044158414 -0.0049486249
0.44427255 0.046160951 -0.0049973698
0.44419047 0.048163489 -0.0050461153
0.4441084 0.050166022 -0.0050948602
