# .PCD v0.7 - Point Cloud Data file format
VERSION 0.7
FIELDS x y z
SIZE 4 4 4
TYPE F F F
COUNT 1 1 1
WIDTH 1369
HEIGHT 1
VIEWPOINT 0 0 0 1 0 0 0
POINTS 1369
DATA ascii
0.37967753 0.036368813 0.10708886
0.38237652 0.038256522 0.10853449
0.38236153 0.039883923 0.10851477
0.38415593 0.041674126 0.10947206
0.38414097 0.043297946 0.10945238
0.3855924 0.0043216809 0.10871477
0.38828689 0.0063077658 0.1101632
0.38556248 0.0075693182 0.10867541
0.38554752 0.0091931401 0.10865574
0.38553256 0.010816962 0.10863606
0.38371119 0.012213576 0.10763749
0.3836962 0.013840974 0.10761777
0.38097146 0.0151383 0.10612953
0.38366622 0.017095763 0.10757832
0.38094136 0.018403817 0.10608996
0.38092631 0.020036578 0.10607018
0.38091129 0.021669339 0.10605039
0.38089624 0.023302102 0.10603061
0.38088119 0.024934864 0.10601082
0.38086614 0.026567627 0.10599103
0.38085109 0.028200388 0.10597124
0.38083604 0.029833151 0.10595146
0.38082099 0.03146591 0.10593167
0.38080594 0.033098675 0.10591188
0.38079092 0.034731437 0.10589209
0.38348624 0.036624517 0.10734166
0.38347125 0.038251918 0.10732194
0.38345626 0.039879315 0.10730222
0.38524824 0.041669533 0.10826217
0.38523328 0.043293349 0.1082425
0.38521832 0.04491717 0.10822281
0.38669968 0.0026932624 0.10752456
0.38668472 0.0043170848 0.10750487
0.38666975 0.0059409072 0.1074852
0.38665479 0.0075647221 0.10746552
0.38663983 0.009188544 0.10744584
0.38482091 0.010581579 0.10644465
0.38480592 0.012208969 0.10642493
0.38479093 0.013836368 0.10640521
0.38477594 0.015463766 0.10638548
0.38476092 0.017091157 0.10636576
0.38474593 0.018718556 0.10634604
0.38202465 0.020031957 0.10485362
0.3820096 0.021664718 0.10483383
0.38199455 0.023297481 0.10481405
0.38197953 0.024930242 0.10479426
0.38196447 0.026563006 0.10477448
0.38194942 0.028195767 0.10475469
0.38193437 0.029828528 0.10473491
0.38191932 0.031461291 0.10471512
0.38190427 0.033094052 0.10469533
0.38188922 0.034726813 0.10467554
0.3818742 0.036359571 0.10465576
0.38456598 0.03824731 0.10610938
0.38455096 0.03987471 0.10608966
0.38453597 0.041502103 0.10606994
0.3863256 0.043288752 0.1070326
0.38631064 0.044912573 0.10701292
0.384491 0.046384294 0.10601077
0.37884548 -0.005121551 0.10147437
0.37883034 -0.0034798493 0.10145448
0.3788152 -0.0018381476 0.10143458
0.37880009 -0.000196446 0.10141469
0.38599062 0.002439989 0.1053307
0.38777703 0.0043124887 0.10629498
0.38776207 0.0059363111 0.10627531
0.38774711 0.0075601256 0.10625563
0.38593063 0.0089495741 0.10525181
0.38591564 0.010576973 0.10523209
0.38590065 0.012204363 0.10521237
0.38588566 0.013831762 0.10519265
0.38587064 0.015459159 0.10517292
0.38585564 0.017086551 0.1051532
0.38584065 0.018713949 0.10513348
0.38582566 0.020341346 0.10511376
0.38310793 0.021660097 0.10361728
0.38309288 0.02329286 0.10359749
0.38307783 0.024925621 0.10357771
0.38306281 0.026558382 0.10355792
0.38304776 0.028191146 0.10353813
0.38303271 0.029823907 0.10351835
0.38572067 0.031733118 0.10497571
0.38570568 0.033360519 0.10495599
0.38569069 0.034987915 0.10493626
0.38297251 0.036354948 0.1034392
0.38295746 0.037987709 0.10341942
0.38564569 0.039870102 0.1048771
0.3856307 0.041497499 0.10485738
0.38561571 0.043124896 0.10483766
0.38560072 0.044752289 0.10481793
0.38288224 0.046151519 0.10332048
0.38266322 -0.0063680373 0.1017507
0.38264814 -0.0047316994 0.10173087
0.3799347 -0.0034844961 0.10023125
0.37991956 -0.0018427945 0.10021136
0.3826029 0.00017731421 0.10167138
0.38708535 0.0024353827 0.10411815
0.38707033 0.0040627806 0.10409842
0.38705534 0.0056901714 0.1040787
0.38704035 0.00731757 0.10405898
0.38702536 0.0089449678 0.10403926
0.38701037 0.010572366 0.10401954
0.38699535 0.012199757 0.10399982
0.38698035 0.013827155 0.10398009
0.38696536 0.015454553 0.10396037
0.38695037 0.017081944 0.10394065
0.38693535 0.018709343 0.10392093
0.38692036 0.02033674 0.10390121
0.38690537 0.021964138 0.10388149
0.38689038 0.02359153 0.10386176
0.38417616 0.024921 0.10236116
0.38416111 0.026553761 0.10234137
0.38684538 0.028473724 0.1038026
0.38683039 0.030101115 0.10378288
0.3868154 0.031728514 0.10376316
0.38680041 0.03335591 0.10374343
0.38408589 0.034717571 0.10224243
0.38407084 0.036350325 0.10222265
0.38405579 0.03798309 0.10220286
0.38404074 0.039615851 0.10218307
0.38672543 0.041492891 0.10364483
0.38671041 0.043120287 0.1036251
0.38399562 0.044514135 0.10212371
0.38398057 0.046146899 0.10210393
0.38396552 0.047779661 0.10208414
0.38376397 -0.0063726688 0.10053148
0.38374889 -0.0047363308 0.10051165
0.38103902 -0.0034891427 0.099008046
0.38102391 -0.0018474412 0.098988146
0.38370365 0.00017268264 0.10045216
0.38818005 0.0024307764 0.10290559
0.38816506 0.0040581748 0.10288586
0.38815007 0.0056855655 0.10286614
0.38813508 0.0073129637 0.10284642
0.38812009 0.0089403614 0.1028267
0.38810506 0.01056776 0.10280698
0.38809007 0.01219515 0.10278726
0.38807508 0.013822549 0.10276753
0.38536477 0.015119814 0.10126332
0.3880451 0.017077338 0.10272809
0.38533467 0.01838533 0.10122375
0.38531965 0.020018093 0.10120396
0.3853046 0.021650854 0.10118417
0.38798511 0.023586923 0.1026492
0.3852745 0.024916379 0.1011446
0.38525945 0.02654914 0.10112482
0.38794011 0.028469117 0.10259004
0.38792512 0.030096509 0.10257032
0.38791013 0.031723905 0.1025506
0.38789511 0.033351306 0.10253087
0.38788012 0.034978703 0.10251115
0.38516918 0.036345705 0.1010061
0.38515413 0.037978467 0.10098631
0.38513908 0.039611228 0.10096652
0.38512403 0.041243989 0.10094674
0.38510898 0.042876754 0.10092695
0.38509396 0.044509515 0.10090716
0.38507891 0.046142276 0.10088737
0.38506386 0.047775038 0.10086759
0.38504881 0.049407799 0.1008478
0.3832362 0.050899159 0.09983743
0.38486469 -0.0063773002 0.099312261
0.38484961 -0.0047409623 0.099292435
0.38483453 -0.0031046246 0.099272601
0.38212827 -0.0018520879 0.097764924
0.38480437 0.00016805108 0.099232942
0.38658348 0.0020530967 0.10020506
0.38925979 0.0040535685 0.10167331
0.38924479 0.0056809592 0.10165359
0.38922977 0.0073083574 0.10163387
0.38921478 0.0089357551 0.10161415
0.38919979 0.010563154 0.10159443
0.3891848 0.012190544 0.1015747
0.38647816 0.013482431 0.10006656
0.38646311 0.015115192 0.10004677
0.38644806 0.016747955 0.10002698
0.38643301 0.018380709 0.1000072
0.38641796 0.02001347 0.09998741
0.3864029 0.021646233 0.099967621
0.38638788 0.023278994 0.099947833
0.38637283 0.024911758 0.099928051
0.38635778 0.026544519 0.099908262
0.38634273 0.028177282 0.099888474
0.38632768 0.029810043 0.099868692
0.38631263 0.031442806 0.099848904
0.38629758 0.033075567 0.099829115
0.38628256 0.034708329 0.099809326
0.38626751 0.036341082 0.099789545
0.38625246 0.037973847 0.099769756
0.38623741 0.039606608 0.099749967
0.38622236 0.04123937 0.099730179
0.38620731 0.042872131 0.099710397
0.38619226 0.044504892 0.099690609
0.38617721 0.046137657 0.09967082
0.38616219 0.047770418 0.099651039
0.38614714 0.049403176 0.09963125
0.38433692 0.050894529 0.098618209
0.38432184 0.052530866 0.098598383
0.38595036 -0.0047455942 0.098073214
0.38324773 -0.0034984364 0.096561611
0.38321748 -0.00021503305 0.096521817
0.38589004 0.0017997574 0.097993895
0.38766676 0.0036812371 0.098968722
0.38765171 0.005313999 0.098948933
0.3903245 0.0073037511 0.10042131
0.39030951 0.0089311488 0.10040159
0.38760656 0.010212285 0.098889574
0.38759151 0.011845047 0.098869786
0.38757649 0.013477809 0.098850004
0.38756144 0.015110571 0.098830216
0.38754639 0.016743332 0.098810427
0.38753134 0.018376088 0.098790646
0.38751629 0.020008849 0.098770857
0.38750124 0.021641612 0.098751068
0.38748619 0.023274373 0.098731279
0.38747117 0.024907136 0.098711498
0.38745612 0.026539898 0.098691709
0.38744107 0.028172659 0.098671921
0.38742602 0.029805422 0.098652132
0.38741097 0.031438183 0.098632351
0.38739592 0.033070944 0.098612562
0.38738087 0.034703709 0.098592773
0.38736582 0.036336463 0.098572992
0.3873508 0.037969224 0.098553203
0.38733575 0.039601985 0.098533414
0.3873207 0.041234747 0.098513626
0.38730565 0.042867512 0.098493844
0.3872906 0.044500273 0.098474056
0.38727555 0.046133034 0.098454267
0.3872605 0.047765795 0.098434485
0.38545275 0.049253561 0.097418822
0.38543767 0.050889898 0.097398996
0.38542259 0.052526236 0.097379163
0.38271824 0.053961173 0.095865287
0.38430667 0.0014220219 0.09527871
0.38697568 0.0034314636 0.096754842
0.3869606 0.0050678016 0.096735016
0.388735 0.0069421395 0.097712599
0.38871995 0.0085749021 0.09769281
0.3887049 0.010207663 0.097673021
0.38868985 0.011840425 0.097653233
0.3886748 0.013473188 0.097633451
0.38865978 0.01510595 0.097613662
0.38864473 0.016738711 0.097593874
0.38683999 0.018158505 0.096576378
0.38682491 0.019794842 0.096556544
0.38680983 0.02143118 0.096536711
0.38679475 0.023067517 0.096516885
0.38856947 0.024902513 0.097494945
0.38855442 0.026535276 0.097475156
0.3885394 0.028168038 0.097455367
0.38852435 0.029800801 0.097435579
0.3885093 0.031433564 0.097415797
0.38849425 0.033066325 0.097396009
0.3884792 0.034699086 0.09737622
0.38846415 0.03633184 0.097356439
0.3884491 0.037964601 0.09733665
0.38843405 0.039597366 0.097316861
0.38841903 0.041230127 0.097297072
0.38840398 0.042862888 0.097277291
0.38659871 0.044339914 0.096259095
0.38658363 0.045976251 0.096239261
0.38656855 0.047612589 0.096219435
0.38655347 0.049248926 0.096199602
0.38653839 0.050885264 0.096179776
0.3838377 0.052314822 0.094661966
0.38382256 0.053956527 0.094642073
0.38201699 0.055467527 0.093623467
0.38542616 -0.00022432658 0.094075382
0.38541102 0.0014173751 0.094055489
0.38539591 0.0030590843 0.094035596
0.38806134 0.0050631701 0.095515795
0.38804626 0.0066995076 0.095495962
0.38803118 0.0083358455 0.095476136
0.3880161 0.009972183 0.095456302
0.38800102 0.011608521 0.095436476
0.38798594 0.013244859 0.095416643
0.38797086 0.014881197 0.095396817
0.38795578 0.016517535 0.095376983
0.3879407 0.018153872 0.095357157
0.38792562 0.01979021 0.095337324
0.38791054 0.021426549 0.095317498
0.38789546 0.023062887 0.095297664
0.38788038 0.024699224 0.095277838
0.3878653 0.026335562 0.095258005
0.38785022 0.027971899 0.095238179
0.38783514 0.029608238 0.095218346
0.38782007 0.031244576 0.095198512
0.38780499 0.032880913 0.095178686
0.38778991 0.034517251 0.095158853
0.38777483 0.036153588 0.095139027
0.38775977 0.037789926 0.095119193
0.38774469 0.039426263 0.095099367
0.38772961 0.041062601 0.095079534
0.38771453 0.042698942 0.095059708
0.38769946 0.044335283 0.095039874
0.38768438 0.045971621 0.095020048
0.3876693 0.047607958 0.095000215
0.38765422 0.049244296 0.094980389
0.38495716 0.050668474 0.093458638
0.38494205 0.052310176 0.093438745
0.38492692 0.053951882 0.093418851
0.38312373 0.055462871 0.092397578
0.38476115 -0.0021265747 0.091869541
0.38474599 -0.00048129732 0.091849603
0.38651538 0.0014127283 0.092832275
0.38650024 0.0030544375 0.092812382
0.3864851 0.0046961391 0.092792489
0.38914701 0.0066948761 0.094276749
0.38913193 0.0083312141 0.094256915
0.38911685 0.0099675516 0.094237089
0.38910177 0.01160389 0.094217256
0.38908669 0.013240227 0.09419743
0.38907161 0.014876566 0.094177596
0.38905653 0.016512902 0.094157763
0.38904145 0.018149242 0.094137937
0.38902637 0.019785579 0.094118103
0.38901129 0.021421917 0.094098277
0.38899621 0.023058254 0.094078444
0.38898113 0.024694592 0.094058618
0.38896605 0.026330931 0.094038785
0.38895097 0.027967269 0.094018959
0.38893589 0.029603606 0.093999125
0.38892081 0.031239944 0.093979299
0.38890573 0.032876283 0.093959466
0.38889065 0.03451262 0.09393964
0.38887557 0.036148958 0.093919806
0.38886049 0.037785295 0.09389998
0.38884541 0.039421633 0.093880147
0.38883033 0.04105797 0.093860313
0.38881525 0.042694308 0.093840487
0.38880017 0.044330649 0.093820654
0.38610691 0.045738719 0.09229511
0.38609177 0.047380418 0.092275217
0.38607663 0.049022119 0.092255324
0.38606152 0.050663825 0.092235431
0.38604638 0.052305527 0.092215531
0.38424563 0.053812932 0.091191642
0.38423049 0.055458214 0.091171704
0.37975106 0.056785628 0.088641457
0.38320994 -0.00416575 0.089155838
0.38586789 -0.0021312318 0.090643667
0.38585272 -0.0004859542 0.090623729
0.3876197 0.0014080816 0.091609068
0.38760459 0.0030497906 0.091589175
0.38758945 0.0046914923 0.091569275
0.38757432 0.0063331942 0.091549382
0.38755921 0.0079748956 0.091529489
0.39021757 0.0099629201 0.093017869
0.39020249 0.011599259 0.092998035
0.39018741 0.013235596 0.092978209
0.39017233 0.014871933 0.092958376
0.39015725 0.016508272 0.09293855
0.39014217 0.018144609 0.092918716
0.38745329 0.019466816 0.091390222
0.38743818 0.021108523 0.091370329
0.38742304 0.022750225 0.091350429
0.39008185 0.024689961 0.092839397
0.39006677 0.026326299 0.092819564
0.39005169 0.027962636 0.092799738
0.39003661 0.029598974 0.092779905
0.3873474 0.030958742 0.091250956
0.38733226 0.032600444 0.091231063
0.3899914 0.03450799 0.092720419
0.38997632 0.036144327 0.092700586
0.38996124 0.037780665 0.09268076
0.38994616 0.039417002 0.092660926
0.38725662 0.040808957 0.091131583
0.38724148 0.042450659 0.09111169
0.38722637 0.044092365 0.091091797
0.38721123 0.04573407 0.091071904
0.38719609 0.047375772 0.091052003
0.38718098 0.049017474 0.09103211
0.38716584 0.05065918 0.091012217
0.38536754 0.052162997 0.089985698
0.3853524 0.053808276 0.089965761
0.38533723 0.055453558 0.089945823
0.38086382 0.056780949 0.087408923
0.38432032 -0.004170422 0.087925956
0.38430509 -0.002519781 0.087905951
0.38695946 -0.00049061107 0.089397848
0.38694432 0.0011546739 0.08937791
0.38870892 0.003045144 0.090365946
0.38869381 0.0046868455 0.090346053
0.38867867 0.0063285474 0.09032616
0.38866353 0.0079702493 0.090306267
0.38864842 0.0096119503 0.090286367
0.38863328 0.01125366 0.090266474
0.38861817 0.012895362 0.090246581
0.38860303 0.014537062 0.09022668
0.38858789 0.016178764 0.090206787
0.38857278 0.017820466 0.090186894
0.38855764 0.019462168 0.090167001
0.3885425 0.021103878 0.0901471
0.38852739 0.022745579 0.090127207
0.38851225 0.02438728 0.090107314
0.38849711 0.026028981 0.090087421
0.388482 0.027670683 0.090067521
0.38846686 0.029312393 0.090047628
0.38845176 0.030954095 0.090027735
0.38843662 0.032595795 0.090007842
0.38842148 0.034237497 0.089987941
0.38840637 0.035879198 0.089968048
0.38839123 0.0375209 0.089948155
0.38837609 0.03916261 0.089928262
0.38836098 0.040804312 0.089908361
0.38834584 0.042446014 0.089888468
0.38833073 0.044087719 0.089868575
0.38831559 0.045729425 0.089848682
0.38830045 0.047371127 0.089828782
0.38650462 0.048867781 0.0887997
0.38648945 0.050513059 0.088779762
0.38647431 0.052158341 0.088759825
0.38645914 0.053803619 0.088739887
0.38644397 0.055448897 0.088719949
0.3837575 0.056903429 0.08718583
0.38196135 0.058430489 0.086156331
0.38543066 -0.0041750944 0.086696088
0.38541543 -0.002524453 0.086676084
0.38806623 -0.00049526797 0.088171959
0.38805106 0.001150017 0.088152021
0.38981327 0.0030404972 0.08914274
0.38979813 0.0046821986 0.089122839
0.38978302 0.0063239005 0.089102946
0.38976789 0.007965602 0.089083053
0.38975275 0.0096073039 0.08906316
0.38973764 0.011249013 0.08904326
0.3897225 0.012890714 0.089023367
0.38970736 0.014532416 0.089003474
0.38969225 0.016174117 0.08898358
0.38967711 0.017815819 0.08896368
0.389662 0.019457521 0.088943787
0.38964686 0.02109923 0.088923894
0.38963172 0.022740932 0.088903993
0.38961661 0.024382634 0.0888841
0.39226824 0.026317036 0.090381131
0.39225319 0.027953373 0.090361297
0.39223811 0.029589711 0.090341471
0.38955608 0.030949447 0.088804521
0.38954094 0.032591149 0.088784628
0.39219287 0.034498725 0.090281978
0.39217779 0.036135063 0.090262152
0.39216271 0.0377714 0.090242319
0.39214763 0.039407738 0.090222493
0.3894653 0.040799666 0.088685155
0.38945019 0.042441368 0.088665254
0.38943505 0.044083074 0.088645361
0.38941991 0.045724776 0.088625468
0.3894048 0.047366478 0.088605575
0.38938966 0.049008179 0.088585675
0.38937452 0.050649885 0.088565782
0.38758105 0.052153684 0.087533936
0.38756588 0.053798962 0.087513998
0.38755074 0.055444241 0.08749406
0.38486785 0.056898758 0.085955963
0.3830741 0.058425806 0.084923781
0.38654101 -0.0041797664 0.085466206
0.38652581 -0.002529125 0.085446201
0.38917297 -0.00049992482 0.086946085
0.3891578 0.0011453602 0.086926147
0.38914266 0.0027906375 0.08690621
0.39090249 0.0046775523 0.087899618
0.39088735 0.0063192537 0.087879725
0.39087224 0.0079609556 0.087859832
0.3908571 0.0096026566 0.087839931
0.39084199 0.011244366 0.087820038
0.39082685 0.012886068 0.087800145
0.39081171 0.01452777 0.087780252
0.3907966 0.016169472 0.087760352
0.39078146 0.017811174 0.087740459
0.39076632 0.019452874 0.087720565
0.39075121 0.021094583 0.087700672
0.39073607 0.022736285 0.087680772
0.39072093 0.024377987 0.087660879
0.39070582 0.026019689 0.087640986
0.39069068 0.027661391 0.087621093
0.39067557 0.0293031 0.087601192
0.39066043 0.0309448 0.087581299
0.3906453 0.032586504 0.087561406
0.39063019 0.034228206 0.087541506
0.39061505 0.035869908 0.087521613
0.39059991 0.037511606 0.08750172
0.3905848 0.039153315 0.087481827
0.39056966 0.040795017 0.087461926
0.39055452 0.042436719 0.087442033
0.39053941 0.044078425 0.08742214
0.38874844 0.045567904 0.086387813
0.3887333 0.047213186 0.086367875
0.38871813 0.048858467 0.086347938
0.38870296 0.050503746 0.086327992
0.38868779 0.052149028 0.086308055
0.38867265 0.053794306 0.086288117
0.38865748 0.055439584 0.086268179
0.38597819 0.056894086 0.08472608
0.38418689 0.058421124 0.083691232
0.38150746 0.059895296 0.082148947
0.38322029 -0.0048332741 0.081696756
0.38763615 -0.0025337972 0.084216319
0.38762096 -0.00088314828 0.084196314
0.39026457 0.0011407032 0.085700266
0.3902494 0.0027859807 0.085680328
0.39023423 0.0044312584 0.085660391
0.39021906 0.0060765431 0.085640453
0.39020392 0.0077218208 0.085620515
0.39196146 0.0095980102 0.086616725
0.39194632 0.01123972 0.086596824
0.39193118 0.012881421 0.086576931
0.39191607 0.014523122 0.086557038
0.39190093 0.016164824 0.086537145
0.39011294 0.017593501 0.085500889
0.3900978 0.019238777 0.085480943
0.39008263 0.020884056 0.085461006
0.39006746 0.022529341 0.085441068
0.39005229 0.024174618 0.08542113
0.39003715 0.025819896 0.085401192
0.39002198 0.027465174 0.085381255
0.39000681 0.029110458 0.085361317
0.38999164 0.030755736 0.085341379
0.3899765 0.032401014 0.085321441
0.38996133 0.0340463 0.085301504
0.38994616 0.035691574 0.085281566
0.38993099 0.037336852 0.085261628
0.38991585 0.038982138 0.08524169
0.38990068 0.040627416 0.085221745
0.38988551 0.042272694 0.085201807
0.38987035 0.043917973 0.08518187
0.38985521 0.045563247 0.085161932
0.38984004 0.047208529 0.085141994
0.38982487 0.048853811 0.085122056
0.3898097 0.050499089 0.085102119
0.38979456 0.052144371 0.085082181
0.38977939 0.053789645 0.085062243
0.38976422 0.055434927 0.085042305
0.38708857 0.056889415 0.083496198
0.38529965 0.058416445 0.082458697
0.38528439 0.060070664 0.082438655
0.38083476 0.061433718 0.079874709
0.38433665 -0.0048379712 0.080460213
0.38697645 -0.0027944306 0.081967883
0.3887313 -0.00088782032 0.082966447
0.3887161 0.00076282094 0.082946442
0.39135617 0.0027813239 0.08445444
0.391341 0.0044266013 0.084434502
0.39132583 0.0060718865 0.084414564
0.39131066 0.0077171638 0.084394626
0.39129552 0.0093624415 0.084374689
0.39128035 0.011007726 0.084354751
0.39126518 0.012653003 0.084334813
0.39125001 0.014298282 0.084314875
0.39123487 0.015943559 0.084294938
0.39121971 0.017588845 0.084275
0.39120454 0.019234121 0.084255062
0.38853356 0.020570561 0.082706407
0.39117423 0.022524685 0.084215179
0.38850313 0.023871852 0.082666397
0.38848794 0.025522493 0.082646392
0.38847271 0.027173141 0.082626387
0.38845751 0.028823784 0.08260639
0.39109841 0.030751079 0.08411549
0.39108324 0.032396358 0.084095553
0.39106807 0.034041643 0.084075615
0.39105293 0.035686918 0.084055677
0.39103776 0.037332196 0.084035739
0.39102259 0.038977481 0.084015802
0.39100742 0.04062276 0.083995864
0.39099228 0.042268038 0.083975919
0.39097711 0.043913312 0.083955981
0.39096195 0.04555859 0.083936043
0.3882902 0.046980873 0.082386352
0.38827497 0.048631519 0.082366347
0.39091647 0.050494432 0.08387623
0.3909013 0.052139714 0.083856292
0.39088616 0.053784989 0.083836354
0.38821414 0.055234097 0.082286336
0.38642764 0.056757536 0.081246197
0.38641241 0.058411762 0.081226155
0.38639715 0.060065981 0.081206106
0.38372493 0.061545487 0.079655744
0.38193822 0.063092172 0.078615353
0.38545305 -0.0048426688 0.079223678
0.38808921 -0.0027991128 0.080735333
0.38807395 -0.0011448957 0.080715284
0.38982645 0.0007581489 0.08171656
0.38981125 0.0024087976 0.081696562
0.38979605 0.0040594391 0.081676558
0.38978082 0.0057100877 0.081656553
0.38976562 0.0073607289 0.081636548
0.38975039 0.0090113776 0.081616543
0.38973519 0.010662019 0.081596546
0.38971999 0.012312667 0.081576541
0.38970476 0.013963309 0.081556536
0.38968956 0.015613951 0.081536531
0.38967434 0.017264599 0.081516527
0.38965914 0.01891524 0.081496522
0.38964394 0.02056589 0.081476524
0.38962871 0.022216531 0.08145652
0.38961351 0.023867179 0.081436515
0.38959828 0.025517821 0.08141651
0.38958308 0.02716847 0.081396505
0.38956788 0.02881911 0.081376508
0.38955265 0.03046976 0.081356503
0.38953745 0.032120399 0.081336498
0.38952222 0.033771049 0.081316493
0.38950703 0.035421692 0.081296489
0.38949183 0.037072331 0.081276491
0.3894766 0.038722981 0.081256486
0.3894614 0.040373627 0.081236482
0.38944617 0.04202427 0.081216477
0.38943097 0.043674916 0.081196472
0.38941577 0.045325559 0.081176475
0.38940054 0.046976201 0.08115647
0.38938534 0.048626848 0.081136465
0.38937011 0.05027749 0.08111646
0.38935491 0.051928133 0.081096455
0.38933972 0.053578779 0.081076458
0.38932449 0.055229425 0.081056453
0.38754043 0.056752853 0.080013655
0.38752517 0.058407079 0.079993606
0.38485658 0.059881207 0.078439318
0.38484129 0.06154079 0.078419209
0.383057 0.063087471 0.07737615
0.38304168 0.064750634 0.077355996
0.3865847 -0.0065069543 0.078007244
0.38656941 -0.0048473659 0.077987134
0.38920197 -0.002803795 0.079502799
0.38918671 -0.0011495779 0.079482749
0.38917148 0.00050464674 0.079462707
0.38915622 0.0021588639 0.079442658
0.38914099 0.0038130886 0.079422608
0.39089119 0.0057054157 0.080426671
0.39087597 0.0073560569 0.080406666
0.39086077 0.0090067061 0.080386661
0.39084554 0.010657347 0.080366664
0.38906476 0.012084197 0.079322375
0.39081514 0.013958637 0.080326654
0.38903427 0.015392639 0.079282284
0.38901904 0.017046856 0.079262234
0.38900378 0.01870108 0.079242192
0.38898855 0.020355305 0.079222143
0.3889733 0.022009522 0.079202101
0.38895807 0.023663746 0.079182051
0.38894281 0.025317963 0.079162002
0.38892758 0.02697219 0.07914196
0.38891232 0.028626407 0.07912191
0.39066303 0.030465087 0.080126621
0.3906478 0.032115728 0.080106616
0.3906326 0.033766378 0.080086611
0.39061737 0.03541702 0.080066614
0.39060217 0.037067659 0.080046609
0.39058697 0.038718309 0.080026604
0.39057174 0.040368956 0.080006599
0.39055654 0.042019598 0.079986595
0.39054132 0.043670245 0.079966597
0.38875988 0.045168623 0.078921445
0.38874465 0.046822846 0.078901395
0.38872939 0.048477069 0.078881353
0.38871416 0.050131287 0.078861304
0.38869891 0.05178551 0.078841254
0.38868368 0.053439729 0.078821212
0.38866842 0.055093952 0.078801163
0.38600355 0.056557335 0.077243
0.38598827 0.058216918 0.077222891
0.38597298 0.059876509 0.077202775
0.38595766 0.061536092 0.077182665
0.38417578 0.063082762 0.076136939
0.38416046 0.064745925 0.076116785
0.38414511 0.066409089 0.076096632
0.38332486 -0.010506584 0.074245051
0.38595358 -0.0084379669 0.075764403
0.38593826 -0.0067748027 0.075744249
0.38768578 -0.0048520635 0.076750599
0.38767049 -0.0031924748 0.076730482
0.3902995 -0.00115426 0.078250207
0.39028424 0.00049996458 0.078230157
0.39026901 0.0021541817 0.078210108
0.39025375 0.0038084064 0.078190066
0.39023852 0.0054626237 0.078170016
0.39022326 0.0071168481 0.078149974
0.39020804 0.0087710731 0.078129925
0.39019278 0.01042529 0.078109875
0.39017755 0.012079515 0.078089833
0.39016229 0.013733732 0.078069784
0.39014706 0.015387956 0.078049734
0.3901318 0.017042173 0.078029692
0.39011657 0.018696398 0.078009643
0.39010131 0.020350622 0.077989601
0.39008608 0.022004841 0.077969551
0.39007083 0.023659065 0.077949502
0.3900556 0.025313282 0.07792946
0.39004034 0.026967507 0.07790941
0.39002511 0.028621724 0.077889368
0.39000985 0.030275948 0.077869318
0.38999462 0.031930175 0.077849269
0.38997936 0.03358439 0.077829227
0.3899641 0.035238616 0.077809177
0.38994887 0.036892831 0.077789128
0.38993362 0.038547058 0.077769086
0.38991839 0.040201277 0.077749036
0.38990313 0.041855499 0.077728994
0.3898879 0.043509718 0.077708945
0.38987264 0.045163941 0.077688895
0.38985741 0.046818163 0.077668853
0.38984215 0.048472386 0.077648804
0.38982692 0.050126605 0.077628754
0.38981166 0.051780827 0.077608712
0.38979644 0.05343505 0.077588663
0.38978118 0.055089269 0.07756862
0.38711992 0.056552637 0.076006465
0.38710463 0.058212221 0.075986348
0.38708934 0.059871811 0.075966239
0.38530988 0.06141489 0.07491789
0.38529456 0.063078053 0.074897736
0.38527924 0.064741217 0.074877582
0.38526389 0.06640438 0.074857429
0.38524857 0.068067543 0.074837275
0.38446262 -0.012179835 0.073022068
0.38444728 -0.010511307 0.073001847
0.38707235 -0.0084426748 0.0745252
0.38705704 -0.0067795105 0.074505046
0.38704172 -0.0051163458 0.074484892
0.38878685 -0.0031971722 0.075493947
0.38877156 -0.0015375839 0.07547383
0.38875628 0.0001219971 0.075453721
0.38874099 0.0017815855 0.075433612
0.3887257 0.003441174 0.075413495
0.38871038 0.0051007625 0.075393386
0.38869509 0.0067603434 0.075373277
0.3886798 0.0084199319 0.075353161
0.38866451 0.01007952 0.075333051
0.38864923 0.011739101 0.075312942
0.38863394 0.013398689 0.075292826
0.39125982 0.015383274 0.076817192
0.39124456 0.017037492 0.076797143
0.39122933 0.018691717 0.076777101
0.39121407 0.020345941 0.076757051
0.38855746 0.021696623 0.075192265
0.38854218 0.023356212 0.075172156
0.38852686 0.025015794 0.075152047
0.38851157 0.026675383 0.07513193
0.39113787 0.028617041 0.076656818
0.39112261 0.030271266 0.076636769
0.39110738 0.031925492 0.076616727
0.39109212 0.033579707 0.076596677
0.39107689 0.035233933 0.076576628
0.39106163 0.036888149 0.076556586
0.3910464 0.038542375 0.076536536
0.39103115 0.040196594 0.076516494
0.39101592 0.041850816 0.076496445
0.39100066 0.043505035 0.076476395
0.39098543 0.045159258 0.076456353
0.39097017 0.046813484 0.076436304
0.39095494 0.048467703 0.076416254
0.39093968 0.050121926 0.076396212
0.39092445 0.051776145 0.076376162
0.39090919 0.053430367 0.07635612
0.3882516 0.054888353 0.074790038
0.38823628 0.05654794 0.074769922
0.388221 0.058207523 0.074749812
0.38644397 0.059747022 0.073698841
0.38642865 0.061410181 0.073678687
0.38641334 0.063073345 0.073658533
0.38639802 0.064736508 0.07363838
0.38638267 0.066399671 0.073618226
0.38636735 0.068062834 0.073598064
0.38384253 -0.014130561 0.070767462
0.38558501 -0.012184558 0.071778864
0.38556963 -0.01051603 0.071758643
0.38555428 -0.0088475011 0.071738429
0.38817582 -0.0067842179 0.073265843
0.3881605 -0.0051210537 0.073245682
0.38814518 -0.0034578892 0.073225528
0.38988793 -0.0015422812 0.074237294
0.38987264 0.00011729973 0.074217185
0.38985735 0.0017768882 0.074197069
0.38984206 0.0034364767 0.07417696
0.38982677 0.0050960649 0.074156843
0.38981149 0.0067556459 0.074136734
0.38979617 0.0084152343 0.074116625
0.38978088 0.010074823 0.074096508
0.38976559 0.011734404 0.074076399
0.3897503 0.013393993 0.07405629
0.38973501 0.015053581 0.074036174
0.38971972 0.016713168 0.074016064
0.38970441 0.01837275 0.073995955
0.38968912 0.020032339 0.073975839
0.38967383 0.021691928 0.07395573
0.38965854 0.023351515 0.07393562
0.38964325 0.025011096 0.073915504
0.38962796 0.026670685 0.073895395
0.38961264 0.028330274 0.073875286
0.38959736 0.029989861 0.073855169
0.38958207 0.031649444 0.07383506
0.39220488 0.033575024 0.075364143
0.39218965 0.035229251 0.075344093
0.39217439 0.036883466 0.075324051
0.39215916 0.038537692 0.075304002
0.39214391 0.040191911 0.075283952
0.39212868 0.041846134 0.07526391
0.38947502 0.04326655 0.073694274
0.38945973 0.04492614 0.073674165
0.38944444 0.046585724 0.073654056
0.38942912 0.048245311 0.073633939
0.38941383 0.049904898 0.07361383
0.38939855 0.051564485 0.073593721
0.38938326 0.053224068 0.073573604
0.38936797 0.054883655 0.073553495
0.38759342 0.056415983 0.072499946
0.3875781 0.05807915 0.072479792
0.38756275 0.059742313 0.072459638
0.38754743 0.061405472 0.072439484
0.38753211 0.063068636 0.07241933
0.38751677 0.064731799 0.072399169
0.38750145 0.066394962 0.072379015
0.38748613 0.068058126 0.072358862
0.38496733 -0.014135294 0.069521584
0.38495192 -0.01246319 0.069501325
0.38493651 -0.010791086 0.06948106
0.38667667 -0.0088522239 0.070495218
0.38666129 -0.0071836961 0.070474997
0.38664591 -0.005515168 0.070454776
0.38926396 -0.0034625968 0.071986325
0.38924861 -0.0017994324 0.071966171
0.39098901 0.00011260236 0.072980642
0.39097372 0.0017721908 0.072960533
0.39095843 0.0034317791 0.072940417
0.39094314 0.0050913678 0.072920308
0.39092785 0.0067509487 0.072900198
0.39091256 0.0084105367 0.072880082
0.39089724 0.010070126 0.072859973
0.39088196 0.011729706 0.072839864
0.39086667 0.013389295 0.072819747
0.39085138 0.015048883 0.072799638
0.39083609 0.016708471 0.072779529
0.3908208 0.018368052 0.072759412
0.39080548 0.020027641 0.072739303
0.39079019 0.02168723 0.072719187
0.39077491 0.023346817 0.072699077
0.39075962 0.025006399 0.072678968
0.39074433 0.026665987 0.072658852
0.39072904 0.028325576 0.072638743
0.39071372 0.029985163 0.072618634
0.39069843 0.031644747 0.072598517
0.39068314 0.033304334 0.072578408
0.39066786 0.034963921 0.072558299
0.39065257 0.036623511 0.072538182
0.39063728 0.038283091 0.072518073
0.39062196 0.039942678 0.072497964
0.39060667 0.041602269 0.072477847
0.39059138 0.043261852 0.072457738
0.39057609 0.044921443 0.072437629
0.39056081 0.046581026 0.072417513
0.39054552 0.048240613 0.072397403
0.3905302 0.0499002 0.072377294
0.39051491 0.051559787 0.072357178
0.39049962 0.053219371 0.072337069
0.39048433 0.054878958 0.072316952
0.3887122 0.056411278 0.071260743
0.38869688 0.058074441 0.071240589
0.38868153 0.059737604 0.071220435
0.38866621 0.061400767 0.071200274
0.38865089 0.063063927 0.07118012
0.38863555 0.064727098 0.071159966
0.38862023 0.066390261 0.071139812
0.38860491 0.068053417 0.071119659
0.38346261 -0.014556267 0.066720352
0.38607672 -0.012467923 0.068255462
0.38606131 -0.010795819 0.068235196
0.3860459 -0.0091237146 0.068214931
0.38778368 -0.0071884189 0.069231801
0.3877683 -0.0055198907 0.06921158
0.38775292 -0.0038513627 0.069191359
0.39036742 -0.0018041399 0.070726953
0.39035207 -0.0001409757 0.0707068
0.39033675 0.0015221885 0.070686646
0.39032143 0.0031853453 0.070666492
0.39030612 0.0048485096 0.070646331
0.39029077 0.0065116738 0.070626177
0.39027545 0.0081748385 0.070606023
0.39026013 0.0098380027 0.070585869
0.39024478 0.011501167 0.070565715
0.39022946 0.013164324 0.070545562
0.39021415 0.014827488 0.0705254
0.39019883 0.016490653 0.070505247
0.39018348 0.018153816 0.070485093
0.39016816 0.019816982 0.070464939
0.39015284 0.021480145 0.070444785
0.39013752 0.02314331 0.070424631
0.39012218 0.024806466 0.07040447
0.39010686 0.026469631 0.070384316
0.39009154 0.028132794 0.070364162
0.39007619 0.02979596 0.070344009
0.39006087 0.031459123 0.070323855
0.39179951 0.033299636 0.071341865
0.39003024 0.034785453 0.07028354
0.39001489 0.036448609 0.070263386
0.38999957 0.038111772 0.070243232
0.38998425 0.039774936 0.070223078
0.38996893 0.041438103 0.070202924
0.38995358 0.043101266 0.07018277
0.38993827 0.044764426 0.070162609
0.38992295 0.046427593 0.070142455
0.38990763 0.048090756 0.070122302
0.38989228 0.049753919 0.070102148
0.38987696 0.051417079 0.070081994
0.38986164 0.053080246 0.07006184
0.3898463 0.054743409 0.070041679
0.38983098 0.056406569 0.070021525
0.38981566 0.058069732 0.070001371
0.38980034 0.059732899 0.069981217
0.38978499 0.061396059 0.069961064
0.38976967 0.063059226 0.06994091
0.38975435 0.064722389 0.069920748
0.38973904 0.066385552 0.069900595
0.39147836 0.068150952 0.070919521
0.38970837 0.069711879 0.069860287
0.38460648 -0.01623849 0.065490812
0.38459101 -0.014561015 0.065470487
0.38457558 -0.012883548 0.065450154
0.38718611 -0.010800551 0.066989318
0.3871707 -0.0091284476 0.066969059
0.38715529 -0.0074563432 0.066948794
0.38713989 -0.0057842392 0.066928528
0.38712448 -0.0041121352 0.06690827
0.38710907 -0.0024400239 0.066888005
0.38884455 -0.00051902921 0.067907713
0.38882917 0.0011494989 0.067887492
0.38881382 0.002818027 0.067867272
0.38879845 0.0044865552 0.067847051
0.38878307 0.006155083 0.06782683
0.38876769 0.0078236116 0.067806609
0.38875231 0.0094921393 0.067786388
0.38873693 0.011160667 0.067766167
0.38872156 0.012829196 0.067745946
0.38870618 0.014497723 0.067725733
0.3886908 0.016166251 0.067705512
0.39130226 0.01814911 0.06924589
0.39128694 0.019812273 0.069225736
0.39127162 0.021475438 0.069205575
0.3912563 0.023138601 0.069185421
0.39124095 0.024801759 0.069165267
0.39122564 0.026464922 0.069145113
0.39121032 0.028128088 0.069124959
0.38856781 0.029514484 0.067543745
0.38855243 0.031183012 0.067523532
0.38853705 0.03285154 0.067503311
0.38852167 0.034520067 0.06748309
0.38850629 0.036188595 0.067462869
0.38849092 0.037857123 0.067442648
0.38847554 0.03952565 0.067422427
0.38846016 0.041194182 0.067402206
0.39107236 0.043096557 0.06894356
0.39105704 0.044759721 0.068923406
0.39104173 0.046422884 0.068903252
0.38839865 0.047868297 0.06732133
0.3883833 0.049536824 0.067301109
0.38836792 0.051205352 0.067280889
0.39098042 0.053075537 0.06882263
0.39096507 0.0547387 0.068802476
0.38832179 0.056210935 0.067220226
0.38830641 0.057879467 0.067200005
0.38829103 0.059547994 0.067179784
0.38827565 0.061216522 0.067159571
0.38826028 0.062885046 0.06713935
0.39087313 0.06471768 0.068681546
0.39085782 0.066380844 0.068661392
0.39259472 0.068146251 0.069682986
0.39082715 0.06970717 0.068621084
0.38573489 -0.016243238 0.064240947
0.38571942 -0.014565763 0.064220615
0.38570398 -0.012888296 0.06420029
0.38568851 -0.011210828 0.064179957
0.3882955 -0.0091331797 0.065723196
0.38828009 -0.0074610761 0.06570293
0.38826469 -0.0057889721 0.065682665
0.38824928 -0.0041168681 0.065662406
0.38823387 -0.0024447567 0.065642141
0.38821846 -0.0007726528 0.065621875
0.38820305 0.00089945114 0.065601617
0.38818762 0.0025715551 0.065581352
0.38817221 0.0042436589 0.065561086
0.3881568 0.0059157629 0.06554082
0.38814139 0.0075878669 0.065520562
0.38812599 0.0092599709 0.065500297
0.38811058 0.010932082 0.065480031
0.38809517 0.012604186 0.065459773
0.38807976 0.01427629 0.065439507
0.38981318 0.016161529 0.066462308
0.38979781 0.017830057 0.066442095
0.38978243 0.019498585 0.066421874
0.38976705 0.02116712 0.066401653
0.38975167 0.02283565 0.066381432
0.38973629 0.024504177 0.066361211
0.38972092 0.026172705 0.06634099
0.38970557 0.027841233 0.066320769
0.38794109 0.029325234 0.065257132
0.38792568 0.030997338 0.065236874
0.38791028 0.03266944 0.065216608
0.38789487 0.034341544 0.065196343
0.38787946 0.036013655 0.065176085
0.38786405 0.037685759 0.065155819
0.38959792 0.03952093 0.066179231
0.38958254 0.041189458 0.06615901
0.38956717 0.042857986 0.066138789
0.38955179 0.044526517 0.066118568
0.38953641 0.046195045 0.066098347
0.38952103 0.047863573 0.066078126
0.38950565 0.049532101 0.066057913
0.38949031 0.051200628 0.066037692
0.38947493 0.05286916 0.066017471
0.38945955 0.054537687 0.06599725
0.38944417 0.056206215 0.06597703
0.38942879 0.057874743 0.065956809
0.38941342 0.059543271 0.065936588
0.38939804 0.061211798 0.065916367
0.38938266 0.06288033 0.065896146
0.38936728 0.064548858 0.065875933
0.39197659 0.066376135 0.067422189
0.39196125 0.068039298 0.067402028
0.38511747 -0.016529094 0.061946191
0.38684782 -0.014570511 0.062970757
0.38683236 -0.012893043 0.062950432
0.38681692 -0.011215576 0.062930107
0.38680145 -0.009538101 0.062909774
0.38678598 -0.0078606326 0.062889449
0.38677055 -0.0061831651 0.062869117
0.38937405 -0.0041216011 0.064416543
0.38935864 -0.0024494894 0.064396277
0.38934323 -0.00077738561 0.064376011
0.38932782 0.00089471834 0.064355753
0.38931242 0.0025668223 0.064335488
0.38929701 0.0042389263 0.064315222
0.3892816 0.0059110303 0.064294957
0.38926619 0.0075831343 0.064274698
0.38925079 0.0092552379 0.064254433
0.38923538 0.010927349 0.064234167
0.38921997 0.012599453 0.064213909
0.38920456 0.014271557 0.064193644
0.38918915 0.015943661 0.064173378
0.38917375 0.017615765 0.064153112
0.38915834 0.019287869 0.064132854
0.38914293 0.020959973 0.064112589
0.38912752 0.022632077 0.064092323
0.38911211 0.024304189 0.064072065
0.38909671 0.025976293 0.064051799
0.3890813 0.027648397 0.064031534
0.38906589 0.029320501 0.064011276
0.38905048 0.030992605 0.06399101
0.38903508 0.032664709 0.063970745
0.38901964 0.034336813 0.063950479
0.38900423 0.036008924 0.063930221
0.38898882 0.037681028 0.063909955
0.38897341 0.039353132 0.06388969
0.38895801 0.041025236 0.063869432
0.3889426 0.04269734 0.063849166
0.38892719 0.044369448 0.0638289
0.38891178 0.046041556 0.063808635
0.38889638 0.04771366 0.063788377
0.38888097 0.049385764 0.063768111
0.38886556 0.051057868 0.063747846
0.38885015 0.052729975 0.063727587
0.38883474 0.054402079 0.063707322
0.38881934 0.056074183 0.063687056
0.38880393 0.057746287 0.063666791
0.38878852 0.059418395 0.063646533
0.38877311 0.061090499 0.063626267
0.38875771 0.062762603 0.063606001
0.39048967 0.064544134 0.064632721
0.39047429 0.066212662 0.0646125
0.39308003 0.068034589 0.066162825
0.39044356 0.069549717 0.064572059
0.38363326 -0.016955527 0.059122369
0.38623279 -0.014852802 0.060673285
0.3862173 -0.013171751 0.060652912
0.38794532 -0.011220324 0.061680239
0.38792986 -0.0095428489 0.06165991
0.38791439 -0.0078653805 0.061639581
0.38789895 -0.006187913 0.061619252
0.38788348 -0.0045104381 0.061598923
0.38786802 -0.0028329703 0.061578594
0.38785258 -0.0011555025 0.061558265
0.38783711 0.00052196521 0.061537936
0.38782164 0.0021994405 0.061517611
0.38780618 0.0038769082 0.061497282
0.38779074 0.0055543757 0.061476953
0.38777527 0.0072318511 0.061456624
0.3877598 0.0089093186 0.061436296
0.38774437 0.010586787 0.061415967
0.3877289 0.012264262 0.061395638
0.38771343 0.013941729 0.061375309
0.38769799 0.015619197 0.061354984
0.38768253 0.017296664 0.061334655
0.39028314 0.019283136 0.062886976
0.39026773 0.02095524 0.062866718
0.39025232 0.022627344 0.062846452
0.39023691 0.024299456 0.062826186
0.38760522 0.02568402 0.06123301
0.38758978 0.027361486 0.061212681
0.38757432 0.029038962 0.061192356
0.38755885 0.030716429 0.061172027
0.38754341 0.032393899 0.061151698
0.39014447 0.034332078 0.062704608
0.39012903 0.036004189 0.062684342
0.39011362 0.037676293 0.062664084
0.39009821 0.039348397 0.062643819
0.39008281 0.041020501 0.062623553
0.3900674 0.042692605 0.062603287
0.39005199 0.044364713 0.062583029
0.39003658 0.046036821 0.062562764
0.39002118 0.047708925 0.062542498
0.39000577 0.049381029 0.06252224
0.38999036 0.051053133 0.062501974
0.38997495 0.052725241 0.062481709
0.38995954 0.054397345 0.062461447
0.38994414 0.056069449 0.062441181
0.38992873 0.057741553 0.06242092
0.38991332 0.05941366 0.062400658
0.38989791 0.061085764 0.062380392
0.3898825 0.062757872 0.06236013
0.3898671 0.064429976 0.062339865
0.38985169 0.06610208 0.062319603
0.3915813 0.067876466 0.063349083
0.38982087 0.069446288 0.062279075
0.38215622 -0.017381974 0.056290511
0.38475215 -0.015273885 0.057845395
0.38734812 -0.013176509 0.05940038
0.38733262 -0.011495465 0.05938001
0.38731715 -0.0098144226 0.059359636
0.38904279 -0.0078701293 0.060389712
0.38902736 -0.0061926614 0.060369384
0.38901189 -0.004515186 0.060349055
0.38899642 -0.0028377182 0.060328726
0.38898095 -0.0011602505 0.060308401
0.38896552 0.00051721721 0.060288072
0.38895005 0.0021946924 0.060267743
0.38893458 0.0038721601 0.060247414
0.38891914 0.0055496278 0.060227085
0.38890368 0.0072271032 0.060206756
0.38888821 0.0089045707 0.060186427
0.38887277 0.010582038 0.060166098
0.38885731 0.012259514 0.060145773
0.38884184 0.013936982 0.060125444
0.3888264 0.015614449 0.060105115
0.38881093 0.017291917 0.060084786
0.38879547 0.018969392 0.060064457
0.38878 0.020646861 0.060044128
0.38876456 0.022324327 0.0600238
0.38874909 0.024001803 0.060003471
0.38873363 0.02567927 0.059983145
0.38871819 0.027356738 0.059962817
0.38870272 0.029034214 0.059942488
0.38868725 0.030711681 0.059922159
0.38867182 0.032389149 0.05990183
0.38865635 0.034066617 0.059881501
0.38864088 0.035744093 0.059861172
0.38862544 0.037421558 0.059840843
0.39122301 0.039343666 0.061397955
0.39120761 0.04101577 0.061377689
0.3911922 0.042687874 0.061357427
0.39117679 0.044359982 0.061337162
0.39116138 0.04603209 0.0613169
0.39114597 0.047704194 0.061296638
0.39113057 0.049376298 0.061276373
0.39111516 0.051048402 0.061256111
0.39109975 0.052720509 0.061235845
0.39108434 0.054392613 0.061215583
0.39106894 0.056064717 0.061195318
0.39105353 0.057736821 0.061175056
0.39103812 0.059408929 0.061154794
0.39102271 0.061081033 0.061134528
0.3910073 0.062753133 0.061114267
0.3909919 0.064425237 0.061094001
0.39097649 0.066097349 0.061073739
0.39096105 0.067769453 0.061053477
0.39094564 0.069441557 0.061033212
0.38329425 -0.017386762 0.055029981
0.38327867 -0.015694983 0.055009481
0.38587102 -0.013592243 0.056568433
0.3858555 -0.011905828 0.056547996
0.38844794 -0.0098191807 0.058107104
0.38843247 -0.0081381295 0.058086734
0.38841698 -0.0064570857 0.058066361
0.38840148 -0.0047760345 0.058045991
0.38838598 -0.003094991 0.058025617
0.38837048 -0.0014139399 0.058005244
0.38835502 0.00026710369 0.057984874
0.39007846 0.0021899445 0.059017874
0.39006299 0.0038674122 0.058997545
0.39004755 0.0055448799 0.058977216
0.39003208 0.0072223549 0.058956891
0.39001662 0.0088998228 0.058936562
0.39000118 0.01057729 0.058916233
0.38998571 0.012254766 0.058895905
0.38997024 0.013932234 0.058875576
0.38995481 0.015609701 0.058855247
0.38993934 0.017287169 0.058834918
0.38992387 0.018964645 0.058814589
0.3899084 0.020642111 0.058794264
0.38815361 0.022120709 0.057720039
0.38813812 0.023801759 0.057699669
0.38812265 0.025482802 0.057679296
0.38810715 0.027163854 0.057658926
0.38983113 0.029029466 0.058692619
0.38981566 0.030706933 0.05867229
0.38980022 0.032384399 0.058651961
0.38978475 0.034061868 0.058631636
0.38976929 0.035739344 0.058611307
0.38975385 0.037416812 0.058590978
0.38973838 0.03909428 0.058570649
0.38972291 0.040771753 0.058550321
0.38970745 0.042449221 0.058529992
0.38969201 0.044126689 0.058509663
0.38967654 0.045804158 0.058489334
0.38966107 0.04748163 0.058469009
0.38964564 0.049159098 0.05844868
0.38963017 0.050836567 0.058428351
0.3896147 0.052514035 0.058408022
0.38959926 0.054191507 0.058387693
0.3895838 0.05586898 0.058367364
0.38956833 0.057546448 0.058347035
0.38955286 0.05922392 0.058326706
0.38953742 0.060901385 0.058306381
0.38952196 0.062578857 0.058286052
0.38950649 0.064256333 0.058265723
0.38949105 0.065933794 0.058245394
0.39208588 0.067764722 0.059807602
0.38946012 0.069288738 0.058204737
0.38443229 -0.017391551 0.053769454
0.3844167 -0.015699772 0.05374895
0.38440111 -0.014008009 0.05372845
0.38698989 -0.011910602 0.05529147
0.38697436 -0.010224194 0.055271033
0.38695881 -0.0085377796 0.055250596
0.38954777 -0.0064618438 0.056813829
0.3895323 -0.0047807926 0.056793455
0.3895168 -0.0030997491 0.056773085
0.3895013 -0.001418698 0.056752712
0.38948581 0.00026234557 0.056732342
0.38947031 0.0019433892 0.056711968
0.38945484 0.0036244402 0.056691598
0.38943934 0.0053054839 0.056671225
0.38942385 0.0069865347 0.056650855
0.38940835 0.0086675789 0.056630481
0.38939285 0.010348622 0.056610111
0.38937739 0.012029673 0.056589738
0.38936189 0.013710717 0.056569368
0.38934639 0.015391768 0.056548994
0.38933089 0.017072812 0.056528624
0.3893154 0.018753855 0.056508251
0.38929993 0.020434907 0.056487881
0.38928443 0.02211595 0.056467507
0.38926893 0.023797002 0.056447137
0.38925344 0.025478045 0.056426764
0.38923794 0.027159095 0.056406394
0.38922247 0.02884014 0.05638602
0.38920698 0.030521182 0.05636565
0.38919148 0.032202233 0.056345277
0.38917598 0.033883277 0.056324907
0.38916048 0.035564329 0.056304533
0.39088222 0.037412062 0.05734111
0.39086679 0.039089531 0.057320781
0.39085132 0.040767003 0.057300452
0.39083585 0.042444475 0.057280123
0.39082041 0.044121943 0.057259798
0.39080495 0.045799408 0.057239469
0.39078948 0.04747688 0.05721914
0.39077404 0.049154349 0.057198811
0.39075857 0.050831821 0.057178482
0.39074311 0.052509289 0.057158154
0.39072767 0.054186761 0.057137825
0.3907122 0.05586423 0.057117496
0.39069673 0.057541698 0.057097171
0.39068127 0.05921917 0.057076842
0.39066583 0.060896639 0.057056513
0.39065036 0.062574111 0.057036184
0.39063489 0.064251579 0.057015855
0.39061946 0.065929048 0.056995526
0.39060399 0.067606524 0.056975197
0.38885066 0.069185257 0.055897098
0.3855547 -0.015704561 0.052488431
0.38553911 -0.014012798 0.052467931
0.38552353 -0.012321019 0.052447431
0.38810879 -0.010228968 0.054014508
0.38809323 -0.0085425526 0.053994071
0.38807771 -0.0068561453 0.053973634
0.38806215 -0.0051697306 0.053953197
0.38804662 -0.0034833159 0.05393276
0.38803107 -0.0017969084 0.053912323
0.38801554 -0.00011049357 0.053891886
0.38799998 0.0015759139 0.053871453
0.38798445 0.0032623287 0.053851016
0.39057013 0.0053007258 0.055418704
0.39055464 0.006981777 0.05539833
0.39053917 0.0086628208 0.05537796
0.39052367 0.010343864 0.055357587
0.39050817 0.012024915 0.055337217
0.39049268 0.013705959 0.055316843
0.39047718 0.01538701 0.055296473
0.39046171 0.017068053 0.0552761
0.39044622 0.018749097 0.05525573
0.39043072 0.020430148 0.055235356
0.38781351 0.021812854 0.053626209
0.38779795 0.023499269 0.053605773
0.38778242 0.025185676 0.053585336
0.38776687 0.026872093 0.053564899
0.38775134 0.028558508 0.053544462
0.38773578 0.030244915 0.053524025
0.38772026 0.03193133 0.053503588
0.38770473 0.033617735 0.053483151
0.3902913 0.035559569 0.055052012
0.39027581 0.037240613 0.055031639
0.39199519 0.039084785 0.056070916
0.39197972 0.040762253 0.056050587
0.39196426 0.042439725 0.056030259
0.39194882 0.044117194 0.05600993
0.39193335 0.045794662 0.055989601
0.39191788 0.047472134 0.055969272
0.39190245 0.049149603 0.055948943
0.39188698 0.050827071 0.055928614
0.39187151 0.052504539 0.055908289
0.39185607 0.054182012 0.05588796
0.39184061 0.055859484 0.055867631
0.39182514 0.057536952 0.055847302
0.39007443 0.05909422 0.054766808
0.39005893 0.060775265 0.054746434
0.39004344 0.062456314 0.054726064
0.39002794 0.064137362 0.054705691
0.39001244 0.065818407 0.054685321
0.38999698 0.067499451 0.054664947
0.38737836 0.069032386 0.053053979
0.38921213 -0.0068609188 0.052717097
0.38919657 -0.0051745041 0.05269666
0.38918105 -0.0034880892 0.052676223
0.38916549 -0.0018016818 0.052655786
0.38914996 -0.00011526691 0.052635349
0.38913441 0.0015711405 0.052614916
0.38911888 0.0032575554 0.052594479
0.38910332 0.0049439627 0.052574042
0.3890878 0.0066303774 0.052553605
0.38907224 0.0083167925 0.052533168
0.38905671 0.0100032 0.052512731
0.38904119 0.011689615 0.052492294
0.38902563 0.013376022 0.052471858
0.3890101 0.015062437 0.052451421
0.38899454 0.016748844 0.052430984
0.38897902 0.018435258 0.052410547
0.38896346 0.020121675 0.05239011
0.38894793 0.021808082 0.052369673
0.38893238 0.023494497 0.052349236
0.38891685 0.025180904 0.052328799
0.38890129 0.026867319 0.052308362
0.38888577 0.028553734 0.052287925
0.38887024 0.030240141 0.052267488
0.38885468 0.031926557 0.052247051
0.39139113 0.038916901 0.053758737
0.39137563 0.040597949 0.053738363
0.39136013 0.042278994 0.053717993
0.39134467 0.043960042 0.05369762
0.39132917 0.045641087 0.05367725
0.39131367 0.047322135 0.053656876
0.39129817 0.049003184 0.053636506
0.39128268 0.050684232 0.053616133
0.39126721 0.052365273 0.053595763
0.39125171 0.054046322 0.053575389
0.39123622 0.05572737 0.053555015
0.39122072 0.057408415 0.053534646
0.39120522 0.059089463 0.053514272
0.39118975 0.060770508 0.053493902
0.39117426 0.062451556 0.053473528
0.39115876 0.064132601 0.053453159
