# .PCD v0.7 - Point Cloud Data file format
VERSION 0.7
FIELDS x y z
SIZE 4 4 4
TYPE F F F
COUNT 1 1 1
WIDTH 839
HEIGHT 1
VIEWPOINT 0 0 0 1 0 0 0
POINTS 839
DATA ascii
0.32021347 -0.025801927 0.069878809
0.31819978 -0.023806451 0.06929905
0.3181062 -0.021523355 0.069243476
0.30862728 -0.060244426 0.064742416
0.31236491 -0.057221189 0.065741241
0.31227046 -0.054917507 0.065685168
0.31313434 -0.052441645 0.065893002
0.31495693 -0.049801342 0.066364951
0.31582135 -0.047338363 0.066573098
0.3176446 -0.044716086 0.067045473
0.32388982 -0.032213841 0.068617888
0.3228375 -0.03009261 0.068298154
0.32274434 -0.027819807 0.068242826
0.32073218 -0.025834715 0.06765829
0.31967923 -0.023698041 0.067338176
0.31958577 -0.021417513 0.067282662
0.3185325 -0.019273123 0.066962369
0.31651905 -0.017257139 0.066377074
0.30829176 -0.062774226 0.062276926
0.30915421 -0.060277734 0.062486768
0.31288949 -0.057254348 0.063495636
0.31375268 -0.05477589 0.063705914
0.31557384 -0.052130353 0.064182758
0.31547976 -0.049834389 0.064126872
0.31730151 -0.047204316 0.064604074
0.31816566 -0.044749025 0.064814918
0.31998819 -0.042136956 0.065292574
0.32181114 -0.039535198 0.065770462
0.32363454 -0.03694373 0.066248618
0.32354137 -0.034670927 0.066193298
0.32440677 -0.032246519 0.066404894
0.32335505 -0.030125326 0.066082649
0.32326189 -0.02785252 0.066027328
0.32125089 -0.025867505 0.065437771
0.31923956 -0.023872178 0.064847976
0.32010505 -0.021450339 0.06505964
0.31905237 -0.019305985 0.064736828
0.31704012 -0.017290076 0.064146519
0.31598693 -0.015132848 0.063823402
0.30977598 -0.062625036 0.060287446
0.31063795 -0.060131084 0.060499862
0.31437099 -0.057110127 0.061518822
0.31427667 -0.054809012 0.061462808
0.31609666 -0.052163403 0.061944671
0.31600255 -0.04986744 0.061888784
0.31782314 -0.047237288 0.062371004
0.31868669 -0.044781961 0.062584355
0.32050809 -0.042169821 0.063067034
0.32137218 -0.039727353 0.063280702
0.32415208 -0.036976445 0.064033121
0.32405892 -0.034703638 0.063977793
0.32396576 -0.032430843 0.063922472
0.3238726 -0.030158039 0.063867144
0.321863 -0.028178241 0.063272692
0.32176962 -0.025900293 0.063217245
0.31975943 -0.023905041 0.062622435
0.31966585 -0.021621946 0.062566862
0.31669635 -0.019747466 0.061701857
0.31660247 -0.017456643 0.061646093
0.3145909 -0.015427932 0.061050471
0.30944172 -0.065157481 0.057817001
0.31125903 -0.062475778 0.058302987
0.31307682 -0.05980435 0.058789238
0.31393862 -0.057320669 0.059004411
0.31480065 -0.054842137 0.059219711
0.31757605 -0.052024182 0.059978023
0.31748202 -0.049730785 0.0599222
0.3183448 -0.047270264 0.060137939
0.31920776 -0.0448149 0.060353804
0.32102796 -0.042202681 0.060841493
0.32189149 -0.039760176 0.061057672
0.32275519 -0.03732283 0.061273973
0.32457647 -0.034736354 0.061762296
0.32256845 -0.032766931 0.061163075
0.32247508 -0.030488983 0.061107624
0.32429698 -0.027917951 0.061596323
0.32133061 -0.026077041 0.060724601
0.32027933 -0.023937905 0.060396902
0.31826982 -0.021932436 0.059796806
0.31721801 -0.01978044 0.059468795
0.31616598 -0.017623285 0.059140652
0.31511372 -0.01546098 0.058812387
0.29793364 -0.076998278 0.052230377
0.30547842 -0.073105015 0.05436077
0.30633816 -0.070585258 0.054577574
0.31006417 -0.067507364 0.055615235
0.31092465 -0.065005638 0.055832479
0.3136965 -0.062143818 0.056597255
0.31455761 -0.059657518 0.056814875
0.31541896 -0.05717637 0.057032622
0.31723642 -0.05452548 0.057524394
0.31809828 -0.052057195 0.05774245
0.31896034 -0.049594067 0.057960637
0.31982261 -0.047136076 0.058178946
0.32164145 -0.04451865 0.058671534
0.32154787 -0.042235546 0.058615956
0.32241076 -0.039793003 0.058834642
0.3232739 -0.03735562 0.059053455
0.32318053 -0.035077665 0.058998007
0.32500082 -0.032496274 0.059491467
0.32299379 -0.030521773 0.058887109
0.32481453 -0.027950667 0.059380818
0.32184991 -0.026109869 0.058501575
0.3207992 -0.023970768 0.058171365
0.31879088 -0.021965375 0.057566248
0.31869709 -0.019677136 0.057510551
0.31573066 -0.017790001 0.056630194
0.31372118 -0.015756296 0.056024391
0.26898059 -0.08552295 0.041445993
0.29846877 -0.077032112 0.049939599
0.30696338 -0.07294561 0.052366022
0.31068665 -0.069857277 0.053413466
0.31250119 -0.067165136 0.053909235
0.31527105 -0.064298064 0.054681417
0.31804156 -0.061446425 0.055453971
0.31794745 -0.059150454 0.055398084
0.3188085 -0.056676991 0.055618528
0.31966978 -0.054208685 0.055839095
0.32053125 -0.051745504 0.056059789
0.32043746 -0.049457267 0.056004088
0.32225493 -0.046834603 0.056501567
0.32216135 -0.044551514 0.056445993
0.32302356 -0.04210636 0.056667127
0.32293007 -0.039825831 0.056611612
0.32379261 -0.037388407 0.056832932
0.32369924 -0.035110455 0.056777481
0.32360587 -0.032832507 0.056722034
0.32351249 -0.030554563 0.056666583
0.32341912 -0.028276609 0.056611136
0.32332575 -0.025998661 0.056555685
0.3213191 -0.024003632 0.055945825
0.31931195 -0.021998312 0.055335693
0.31921816 -0.019710073 0.055279993
0.31816739 -0.017555568 0.054946896
0.31424516 -0.015789419 0.05378129
0.31319368 -0.013616896 0.053447753
0.31022733 -0.011691265 0.05255891
0.25818977 -0.090396136 0.035797246
0.28670144 -0.08199162 0.044087589
0.30377316 -0.076088168 0.04904085
0.31035516 -0.072400153 0.050933234
0.31121415 -0.069890626 0.05115531
0.31493589 -0.06682273 0.052213293
0.3167499 -0.064145967 0.05271446
0.31951874 -0.061296795 0.053494602
0.31942475 -0.05900339 0.053438779
0.32028532 -0.056532472 0.053661793
0.3211461 -0.054066695 0.053884931
0.32105231 -0.051778443 0.05382923
0.32286838 -0.049150568 0.054331604
0.32372981 -0.046700228 0.054555118
0.32363632 -0.044419713 0.054499608
0.32354286 -0.042139184 0.054444093
0.32440469 -0.039699145 0.054667864
0.32431132 -0.037421197 0.054612413
0.32421795 -0.035143245 0.054556966
0.32412457 -0.032865297 0.054501515
0.3240312 -0.030587351 0.054446068
0.32298198 -0.028456043 0.054111026
0.32193255 -0.026319591 0.053775862
0.3199268 -0.024319503 0.053160835
0.31887683 -0.022170177 0.052825358
0.31878293 -0.019879363 0.052769598
0.31773266 -0.01772232 0.05243393
0.31476915 -0.015822543 0.051538188
0.31276166 -0.013778684 0.050922114
0.31075367 -0.011724536 0.050305773
0.30778855 -0.0097835707 0.049409047
0.29429665 -0.0091571612 0.045429498
0.27590519 -0.08681827 0.038452771
0.29582268 -0.080242448 0.044291854
0.30716521 -0.075535037 0.047605369
0.31088322 -0.072433539 0.048672572
0.31269512 -0.069733538 0.049178191
0.31641462 -0.066668071 0.050246272
0.31727389 -0.064179085 0.050471354
0.32004097 -0.061329808 0.05125903
0.32090086 -0.05885626 0.051484492
0.32176095 -0.056387872 0.051710077
0.32357544 -0.053749632 0.052217215
0.32443607 -0.051294103 0.052443113
0.32434258 -0.049013585 0.052387603
0.32424912 -0.046733055 0.052332092
0.32415563 -0.044452541 0.052276582
0.3250168 -0.042009886 0.052502792
0.32492343 -0.039731935 0.052447345
0.32483003 -0.037453987 0.052391894
0.32473665 -0.035176035 0.052336447
0.32464328 -0.032898087 0.052280996
0.32359478 -0.030769398 0.051943511
0.32350129 -0.028488869 0.051888
0.32245246 -0.026352456 0.051550325
0.31949237 -0.024493974 0.050648056
0.31939849 -0.022203151 0.050592296
0.31834888 -0.020048728 0.050254181
0.31825489 -0.017755331 0.050198358
0.31529313 -0.015855664 0.049295083
0.31328681 -0.013811881 0.048673995
0.31128001 -0.011757807 0.048052639
0.30831662 -0.009816953 0.04714838
0.30057091 -0.0084653907 0.044830084
0.27656412 -0.0090849586 0.037703313
0.28407472 -0.085246816 0.038365629
0.29826534 -0.079880014 0.042557772
0.30864832 -0.075372942 0.045618083
0.3123641 -0.072273873 0.046695389
0.31417492 -0.06957636 0.047206085
0.3169392 -0.066701226 0.04800066
0.31970412 -0.063841537 0.048795607
0.32151642 -0.061180063 0.049307182
0.3223758 -0.058709055 0.049535215
0.32418892 -0.056065585 0.050047249
0.32504883 -0.05360746 0.050275598
0.32495537 -0.051326931 0.050220083
0.32486188 -0.049046408 0.050164573
0.32572225 -0.046598569 0.050393168
0.32562888 -0.044320624 0.050337717
0.32553551 -0.042042676 0.05028227
0.32544214 -0.039764725 0.050226819
0.32534876 -0.037486777 0.050171372
0.32430103 -0.035363268 0.049831502
0.32420754 -0.033082746 0.049775992
0.32411405 -0.030802224 0.049720481
0.32306591 -0.028668415 0.049380358
0.32106271 -0.026673624 0.048755422
0.32001403 -0.024526948 0.048414987
0.31992012 -0.022236127 0.048359226
0.31887114 -0.02008174 0.048018605
0.31782192 -0.017922195 0.047677856
0.31581712 -0.015888788 0.047051981
0.31190109 -0.014102492 0.045855761
0.31180635 -0.011791078 0.045799498
0.3069334 -0.010097449 0.04431735
0.30110368 -0.0084990691 0.042549346
0.2809349 -0.0086459331 0.036501039
0.26758584 -0.091336012 0.030947087
0.28461981 -0.085281275 0.036032204
0.29880163 -0.079913914 0.040261984
0.30917817 -0.07540644 0.043349892
0.314796 -0.071921051 0.045009211
0.3166059 -0.069228597 0.04552507
0.32032105 -0.066170558 0.046613414
0.32213196 -0.063503854 0.047129881
0.32489595 -0.060664646 0.047932863
0.32480237 -0.058381543 0.047877286
0.32566163 -0.055920806 0.048108079
0.32652107 -0.053465221 0.048338998
0.3264277 -0.051187258 0.048283547
0.32633433 -0.048909314 0.0482281
0.32624096 -0.046631359 0.048172649
0.32614759 -0.044353411 0.048117202
0.32605422 -0.042075466 0.048061751
0.32596084 -0.039797511 0.048006304
0.32586747 -0.037519567 0.047950853
0.32482031 -0.035396092 0.047608472
0.32472685 -0.033115573 0.047552962
0.32463336 -0.030835051 0.047497451
0.32358581 -0.028701277 0.047154821
0.32158378 -0.026706561 0.046524867
0.32053566 -0.024559923 0.046181925
0.32044178 -0.022269102 0.046126161
0.31939337 -0.020114752 0.045783032
0.31834474 -0.017955244 0.045439772
0.31634113 -0.015921911 0.044808879
0.31433713 -0.013878275 0.044177756
0.31137773 -0.01195052 0.043258741
0.30746266 -0.010130905 0.042051673
0.30259162 -0.008411726 0.040556353
0.28530106 -0.0082066013 0.035318859
0.31065953 -0.075244218 0.041370135
0.31722561 -0.071568049 0.043333091
0.31903449 -0.068880685 0.043854073
0.32179567 -0.066015616 0.044663955
0.32360551 -0.063351423 0.045185503
0.32636786 -0.060514685 0.04599607
0.32627439 -0.058234155 0.045940559
0.32618091 -0.055953633 0.045885049
0.32703978 -0.053498007 0.046118472
0.32694641 -0.051220048 0.046063025
0.32685304 -0.0489421 0.046007574
0.32866505 -0.046329368 0.046530396
0.32857189 -0.044056568 0.046475075
0.32847872 -0.041783765 0.046419751
0.32647955 -0.039830301 0.045785777
0.32638618 -0.037552357 0.04573033
0.32533962 -0.035428919 0.045385443
0.32524616 -0.033148397 0.045329932
0.32515267 -0.030867876 0.045274418
0.32410568 -0.028734142 0.044929281
0.3240121 -0.026451046 0.044873707
0.32201102 -0.024451254 0.044238608
0.32096341 -0.022302076 0.043893095
0.31991559 -0.020147763 0.043547455
0.31886756 -0.017988293 0.043201692
0.31686512 -0.015955033 0.042565778
0.31486231 -0.013911472 0.041929636
0.31190467 -0.011983829 0.041003093
0.30990091 -0.009917099 0.040366385
0.3031238 -0.0084453681 0.038278122
0.29157192 -0.0075300112 0.034737401
0.25891152 -0.0066473354 0.024746962
0.31499249 -0.074494727 0.040268261
0.3215549 -0.070828579 0.042249024
0.32241192 -0.068342045 0.042484209
0.32422036 -0.065672599 0.043010652
0.3260293 -0.063013472 0.043537363
0.3278386 -0.060364645 0.044064302
0.32774523 -0.058086682 0.044008855
0.32765186 -0.055808738 0.043953404
0.32755849 -0.053530797 0.043897957
0.32936892 -0.050907683 0.044425543
0.32927576 -0.048634887 0.044370219
0.3291826 -0.04636208 0.044314899
0.32908943 -0.044089284 0.044259574
0.32709163 -0.042141046 0.043620713
0.32699826 -0.039863091 0.043565262
0.32690489 -0.037585143 0.043509815
0.32681152 -0.035307191 0.043454364
0.32576543 -0.033181224 0.043106906
0.32567197 -0.030900704 0.043051392
0.32557848 -0.028620174 0.042995881
0.32453197 -0.026483908 0.042648174
0.32253209 -0.024484191 0.042008057
0.32148507 -0.022335051 0.041660033
0.32139117 -0.020044237 0.041604273
0.32034382 -0.017887378 0.041256059
0.3173891 -0.015988156 0.04032268
0.3163411 -0.013815856 0.039974093
0.31338534 -0.011890891 0.039040089
0.31138286 -0.009826811 0.038398422
0.30460998 -0.0083579216 0.036292665
0.29592746 -0.0070900228 0.033600368
0.26901367 -0.0055489629 0.025282862
0.3193208 -0.07374493 0.039186448
0.32397857 -0.070475243 0.040597975
0.32483521 -0.067993797 0.04083579
0.32664278 -0.065329432 0.041367393
0.32749996 -0.062860854 0.041605528
0.32835734 -0.060397435 0.041843783
0.33016592 -0.057758808 0.042376012
0.33007276 -0.055486005 0.042320687
0.3299796 -0.053213209 0.042265363
0.32988644 -0.050940398 0.042210039
0.3297933 -0.048667602 0.042154718
0.32970014 -0.046394795 0.042099394
0.32770371 -0.044451781 0.041455641
0.32761034 -0.042173833 0.04140019
0.32751697 -0.039895881 0.041344743
0.3274236 -0.037617933 0.041289292
0.32733023 -0.035339981 0.041233845
0.32628474 -0.033214051 0.040883876
0.32619128 -0.030933529 0.040828366
0.32609779 -0.028653001 0.040772855
0.32600433 -0.026372479 0.040717341
0.32495829 -0.024233676 0.040367056
0.32295936 -0.022228874 0.039721798
0.32286555 -0.019940637 0.039666098
0.32181892 -0.017786389 0.039315443
0.31981906 -0.015758419 0.038669635
0.31686568 -0.013849015 0.037728485
0.3158181 -0.011671602 0.037377257
0.31286365 -0.009736456 0.036435477
0.30800182 -0.0080281254 0.03490277
0.29741788 -0.0070054005 0.031597421
0.28683159 -0.0059260437 0.028290672
0.27528933 -0.004903472 0.024687095
0.26088297 -0.0041516381 0.020195419
0.25851646 -0.096389912 0.017943524
0.32269463 -0.073190652 0.03782874
0.32545006 -0.070314981 0.038660932
0.32725623 -0.067645393 0.03919743
0.32811272 -0.0651742 0.039438006
0.32896942 -0.062708169 0.039678708
0.32887605 -0.060430225 0.03962326
0.33068347 -0.057791524 0.040160507
0.32868931 -0.055874318 0.039512362
0.33049715 -0.053245924 0.040049862
0.33040398 -0.050973114 0.039994538
0.32840919 -0.04904047 0.039346013
0.32831582 -0.046762515 0.039290566
0.32822242 -0.044484571 0.039235115
0.32812905 -0.042206623 0.039179668
0.32803568 -0.039928671 0.039124217
0.32794231 -0.037650723 0.03906877
0.32784894 -0.035372771 0.039013319
0.32775557 -0.033094823 0.038957871
0.3276622 -0.030816877 0.038902424
0.32756883 -0.028538924 0.038846973
0.3265236 -0.026405307 0.038494308
0.32643014 -0.024124784 0.038438797
0.32538459 -0.021983443 0.038085945
0.32338661 -0.019973574 0.037435543
0.32329282 -0.017685328 0.037379842
0.32224664 -0.015528544 0.037026614
0.32024777 -0.013495504 0.03637566
0.31729585 -0.011578486 0.035426792
0.31339058 -0.0097697638 0.034179825
0.30948445 -0.0079404563 0.032932356
0.3017658 -0.0065649305 0.030492999
0.29309252 -0.0052642291 0.02775475
0.282511 -0.0041441061 0.024419397
0.27002066 -0.0031890955 0.020486604
0.25848103 -0.0020588606 0.016850289
0.26477158 -0.095188618 0.017324178
0.32511577 -0.072831996 0.036187604
0.32881898 -0.069768079 0.037326004
0.32872549 -0.06748756 0.037270494
0.32863203 -0.065207027 0.03721498
0.32948813 -0.062740959 0.037458193
0.33129418 -0.06009705 0.038000334
0.33120102 -0.057824239 0.03794501
0.33110785 -0.055551436 0.037889689
0.33101469 -0.05327864 0.037834365
0.32902128 -0.051351205 0.037180945
0.3289279 -0.04907326 0.037125498
0.32883453 -0.046795305 0.037070047
0.32874116 -0.044517361 0.0370146
0.32864779 -0.042239413 0.036959153
0.32855442 -0.039961457 0.036903702
0.32846105 -0.037683513 0.036848255
0.32836765 -0.035405558 0.036792804
0.32827428 -0.033127613 0.036737356
0.32818091 -0.030849665 0.036681905
0.32808754 -0.028571712 0.036626458
0.32799417 -0.026293766 0.036571007
0.3279008 -0.024015812 0.03651556
0.32590449 -0.022016307 0.035860408
0.32581091 -0.019733211 0.035804834
0.32381389 -0.017718265 0.035149287
0.3227683 -0.015561518 0.034793548
0.32077059 -0.013528553 0.034137581
0.31877241 -0.01148529 0.033481352
0.31486961 -0.0096792905 0.032224409
0.3119182 -0.0077314968 0.031267278
0.3061091 -0.0061241537 0.029408673
0.29839393 -0.0047180289 0.026948506
0.27914783 -0.0022258863 0.020822955
0.26761615 -0.0011192594 0.017157098
0.25798762 0.00026065804 0.014091068
0.25595084 -0.099767067 0.011983584
0.31529808 -0.077338867 0.030700153
0.32563743 -0.072864972 0.033954538
0.32933828 -0.069800906 0.035102978
0.33019358 -0.067329653 0.035348564
0.33010021 -0.065051697 0.035293117
0.33000684 -0.062773749 0.035237666
0.33181173 -0.060129765 0.035784833
0.33171856 -0.057856955 0.035729509
0.3316254 -0.055584151 0.035674185
0.33153224 -0.053311355 0.03561886
0.32953998 -0.051383995 0.034960423
0.32944661 -0.049106047 0.034904975
0.32935324 -0.046828095 0.034849524
0.32925987 -0.044550147 0.034794077
0.3291665 -0.042272203 0.034738626
0.32907313 -0.039994247 0.034683179
0.32897976 -0.037716303 0.034627728
0.32888639 -0.035438348 0.034572281
0.32879302 -0.033160403 0.03451683
0.33060062 -0.030583339 0.035065625
0.32860628 -0.028604502 0.034405932
0.32851291 -0.026326556 0.034350485
0.32841954 -0.024048602 0.034295034
0.32737526 -0.021909909 0.033937231
0.32633078 -0.019766074 0.033579297
0.3262372 -0.01748297 0.033523723
0.32424116 -0.015462956 0.032863028
0.32224473 -0.01343264 0.032202106
0.31929642 -0.011518412 0.031238245
0.31825057 -0.0093411105 0.030879496
0.31530118 -0.0074011553 0.029915007
0.31235123 -0.0054457407 0.028950157
0.30559319 -0.003939271 0.026773203
0.29788169 -0.0025102892 0.02429238
0.28826442 -0.0012620102 0.021204459
0.27769288 -7.0622722e-05 0.017812172
0.26807129 0.0012831857 0.014721682
0.25939995 0.0027917014 0.01193317
0.30454779 -0.082104251 0.024855506
0.31677407 -0.077173762 0.028742919
0.32521108 -0.073093876 0.031417985
0.33080566 -0.069640391 0.033183508
0.33260873 -0.066980876 0.033735305
0.33061892 -0.065084487 0.033072609
0.33242241 -0.062435277 0.03362466
0.33232927 -0.060162481 0.033569336
0.33223611 -0.05788967 0.033514012
0.33214295 -0.055616867 0.033458687
0.33204979 -0.053344071 0.033403363
0.33005869 -0.051416785 0.032739915
0.32996532 -0.049138837 0.032684464
0.32987195 -0.046860885 0.032629017
0.32977858 -0.044582937 0.032573566
0.32968521 -0.042304993 0.032518119
0.32959184 -0.040027037 0.032462668
0.32949847 -0.037749093 0.03240722
0.3294051 -0.035471138 0.03235177
0.32931173 -0.03319319 0.032296322
0.33111817 -0.030616054 0.032850128
0.331025 -0.028343249 0.032794803
0.33093184 -0.026070446 0.032739479
0.32893825 -0.02408139 0.032074526
0.32789457 -0.021942735 0.031714205
0.32780108 -0.019662214 0.031658694
0.32675707 -0.017515834 0.031298187
0.3247622 -0.015495894 0.030632481
0.32276696 -0.013465651 0.029966537
0.32172212 -0.011298679 0.029605536
0.31877515 -0.0093742702 0.028633893
0.31582752 -0.0074344263 0.027661875
0.31478164 -0.0052417186 0.027300239
0.30993044 -0.0035083864 0.025716731
0.30317545 -0.0019764416 0.023521582
0.29451609 -0.00063041312 0.020714462
0.28680634 0.00087034545 0.01821181
0.27719155 0.0022006198 0.01509679
0.26757458 0.0035823723 0.011980505
0.28444183 -0.091375768 0.015952557
0.29665539 -0.086321242 0.019869586
0.30887172 -0.081333637 0.023788245
0.31824887 -0.077008575 0.026790699
0.3257333 -0.07312689 0.029182408
0.33037686 -0.06986656 0.030656917
0.331231 -0.067395233 0.030907532
0.33303311 -0.064740784 0.03146448
0.33293995 -0.062467992 0.031409156
0.33284679 -0.060195196 0.031353831
0.33275363 -0.057922386 0.031298507
0.33266047 -0.055649582 0.031243185
0.3325673 -0.053376783 0.03118786
0.3305774 -0.051449575 0.03051939
0.33048403 -0.049171627 0.030463941
0.33039066 -0.046893675 0.030408492
0.33029729 -0.044615727 0.030353043
0.33020392 -0.042337779 0.030297594
0.33011055 -0.040059827 0.030242145
0.33001718 -0.037781879 0.030186696
0.32992381 -0.035503928 0.030131247
0.32983044 -0.03322598 0.030075798
0.33163571 -0.030648768 0.030634623
0.33154255 -0.028375965 0.030579301
0.33144939 -0.026103161 0.030523976
0.33135623 -0.023830358 0.030468652
0.32841384 -0.021975562 0.029491171
0.32832038 -0.01969504 0.029435661
0.32727697 -0.017548697 0.02907265
0.32528326 -0.015528832 0.028401922
0.32423931 -0.013369628 0.028038591
0.32319519 -0.011205267 0.027675135
0.32025006 -0.0092835445 0.026696032
0.31825483 -0.007225059 0.026024388
0.31625912 -0.0051562837 0.025352471
0.31331235 -0.0031933738 0.02437238
0.30656177 -0.0016694093 0.022159854
0.29885882 -0.00022042045 0.019638389
0.29115424 0.0012697522 0.017115934
0.28249684 0.0026952315 0.014284275
0.27383751 0.0041670455 0.011451482
0.27846444 -0.095279135 0.011507775
0.28972185 -0.090378955 0.015147892
0.30192834 -0.085336804 0.019097852
0.31129771 -0.080965035 0.02212427
0.32161596 -0.076446161 0.025460407
0.32814917 -0.072767898 0.027563849
0.33184311 -0.069705971 0.028742459
0.33174974 -0.067428023 0.02868701
0.33355066 -0.0647735 0.029248975
0.33440474 -0.06231501 0.029502407
0.33431169 -0.06004478 0.029447146
0.33327118 -0.057955101 0.029083004
0.33317801 -0.055682298 0.02902768
0.33308485 -0.053409498 0.028972358
0.33299169 -0.051136687 0.028917033
0.33100274 -0.049204417 0.028243417
0.33090937 -0.046926461 0.028187968
0.330816 -0.044648517 0.028132519
0.33072263 -0.042370569 0.02807707
0.33062926 -0.040092617 0.028021621
0.33053589 -0.037814669 0.027966172
0.33044252 -0.035536718 0.027910722
0.33034915 -0.03325877 0.027855273
0.33215326 -0.030681483 0.02841912
0.3320601 -0.02840868 0.028363796
0.33006904 -0.026424924 0.027688928
0.33187377 -0.023863073 0.028253149
0.32893315 -0.022008389 0.027268145
0.32883969 -0.019727867 0.027212633
0.3287462 -0.017447345 0.027157122
0.32770327 -0.015298464 0.026791532
0.32571054 -0.013273523 0.02611566
0.32371742 -0.011238279 0.025439566
0.32077405 -0.0093166679 0.024452925
0.31972986 -0.0071369088 0.024086591
0.31868547 -0.0049519925 0.023720123
0.31479055 -0.003110551 0.022422165
0.3099446 -0.0013621546 0.020813188
0.30224663 7.8816614e-05 0.018271837
0.29549748 0.0016694516 0.016040141
0.28779626 0.0031902096 0.01349684
0.28658226 -0.093642786 0.011629918
0.29688767 -0.088969082 0.014989877
0.3071954 -0.084351994 0.018351214
0.31750551 -0.079791531 0.021713952
0.32403335 -0.07608214 0.023834206
0.32867023 -0.072800837 0.0253333
0.33141547 -0.069932215 0.026210863
0.33226845 -0.067460813 0.026466493
0.33406821 -0.064806208 0.027033478
0.33492169 -0.062347688 0.02728942
0.33482864 -0.060077459 0.027234159
0.33473557 -0.057807222 0.027178898
0.33464253 -0.055537 0.027123637
0.33454946 -0.053266779 0.027068377
0.33445641 -0.050996542 0.027013116
0.33341607 -0.048896607 0.026646214
0.33332291 -0.046623804 0.026590889
0.33322975 -0.044351008 0.026535565
0.33313659 -0.042078204 0.026480241
0.33304343 -0.039805401 0.026424918
0.33295026 -0.037532602 0.026369594
0.33096123 -0.035569504 0.025690207
0.33086786 -0.03329156 0.025634758
0.33267081 -0.030714199 0.026203623
0.33257765 -0.028441396 0.026148299
0.33248448 -0.026168592 0.026092976
0.33239132 -0.023895787 0.026037652
0.330401 -0.021901805 0.025357513
0.32935897 -0.019760692 0.024989607
0.32926551 -0.017480172 0.024934094
0.32822317 -0.015331328 0.024566002
0.3262316 -0.01330646 0.02388511
0.32518873 -0.011144749 0.023516703
0.32414564 -0.0089778947 0.023148164
0.32120371 -0.0070486767 0.022153821
0.32016 -0.0048663723 0.021784905
0.31626755 -0.0030276543 0.020476969
0.31237423 -0.0011683473 0.019168533
0.30468118 0.00026717377 0.016607234
0.29888615 0.0019609239 0.014671253
0.29024002 0.0033677188 0.01179486
0.29280043 -0.092423737 0.011165754
0.3012096 -0.0881778 0.013927136
0.31056598 -0.083774388 0.017002983
0.31803361 -0.07982491 0.019453282
0.32455733 -0.076115258 0.021591099
0.32919127 -0.072833776 0.023102744
0.33098903 -0.070158534 0.02367424
0.33278716 -0.067493603 0.024245968
0.33458576 -0.064838924 0.024817975
0.33543864 -0.062380366 0.025076428
0.33439943 -0.060293343 0.024707329
0.33525252 -0.0578399 0.024965905
0.33421311 -0.055747725 0.02459668
0.33411995 -0.053474929 0.024541356
0.33402678 -0.051202118 0.024486033
0.33393362 -0.048929323 0.024430709
0.33384046 -0.046656519 0.024375385
0.33185342 -0.044714097 0.023691479
0.33176005 -0.042436149 0.02363603
0.33166668 -0.040158194 0.023580581
0.33157331 -0.037880249 0.023525132
0.33147994 -0.035602294 0.023469683
0.33138657 -0.03332435 0.023414234
0.3312932 -0.031046402 0.023358785
0.33119982 -0.028768448 0.023303336
0.33110645 -0.026490502 0.023247886
0.33101308 -0.024212549 0.023192437
0.32997176 -0.022074042 0.022822084
0.32987827 -0.01979352 0.022766573
0.32883662 -0.017647287 0.022396032
0.32684645 -0.015627645 0.021710252
0.32675263 -0.013339398 0.021654554
0.32571036 -0.011177723 0.021283636
0.32371926 -0.0091349026 0.020597307
0.32172772 -0.0070817992 0.019910714
0.32068458 -0.0048995321 0.019539295
0.31679446 -0.0030609621 0.018221326
0.31290349 -0.0012018036 0.016902849
0.30806255 0.00056681834 0.015268278
0.30037284 0.0020355065 0.012686092
0.30552682 -0.087386236 0.012884468
0.31204349 -0.083604239 0.015038094
0.31950656 -0.079657041 0.017508529
0.32413638 -0.076347061 0.019032026
0.32782224 -0.073258936 0.020240115
0.3315089 -0.070191391 0.021448703
0.3323606 -0.067717344 0.021709291
0.33321249 -0.06524843 0.021970004
0.33501014 -0.062598854 0.022547141
0.33491698 -0.060326058 0.022491816
0.33482382 -0.058053244 0.022436492
0.33473065 -0.055780441 0.02238117
0.33463749 -0.053507645 0.022325845
0.33454433 -0.051234834 0.022270521
0.33445117 -0.048962038 0.022215199
0.33246553 -0.047024831 0.021526411
0.33237216 -0.044746883 0.021470962
0.33227879 -0.042468939 0.021415513
0.33218542 -0.040190984 0.021360064
0.33209205 -0.037913039 0.021304615
0.33105192 -0.035790011 0.020932129
0.33095846 -0.033509489 0.020876616
0.33086497 -0.031228967 0.020821104
0.33077148 -0.028948439 0.020765593
0.33067802 -0.026667917 0.020710081
0.33058453 -0.024387397 0.02065457
0.33049107 -0.022106867 0.020599058
0.3294501 -0.019963255 0.020226069
0.3274613 -0.017948829 0.019535396
0.32736748 -0.015660582 0.019479696
0.32632589 -0.013501527 0.019106332
0.3243362 -0.011463922 0.018415114
0.32234603 -0.0094160354 0.017723626
0.32130358 -0.007236388 0.017349761
0.31836444 -0.0052893679 0.016339919
0.31732139 -0.0030942704 0.015965676
0.31343275 -0.0012352598 0.014637167
0.30764621 0.00042201081 0.012671949
0.30185843 0.0021101662 0.01070598
0.30795118 -0.087007254 0.011225268
0.3154082 -0.083026268 0.013714962
0.32003406 -0.079690389 0.015250376
0.32371661 -0.076578952 0.016467934
0.3274 -0.073488086 0.017685998
0.32919502 -0.070804983 0.01826732
0.33193523 -0.067941159 0.019167593
0.33278641 -0.065469638 0.019430753
0.33363783 -0.063003272 0.019694038
0.33354446 -0.060725328 0.019638589
0.33345109 -0.058447365 0.01958314
0.33335772 -0.05616942 0.01952769
0.33231902 -0.054067031 0.019153195
0.33317098 -0.051613521 0.019416792
0.33307761 -0.049335573 0.019361343
0.33298424 -0.047057621 0.019305894
0.33194512 -0.044944938 0.018931149
0.33185166 -0.042664409 0.018875636
0.33175817 -0.040383879 0.018820124
0.33166468 -0.038103364 0.018764613
0.33062506 -0.035977799 0.018389553
0.33053148 -0.033694703 0.018333979
0.3304379 -0.031411607 0.018278405
0.33034432 -0.029128503 0.018222829
0.32835752 -0.02713475 0.017527638
0.33015716 -0.02456231 0.018111682
0.32816994 -0.022558251 0.017416239
0.32712924 -0.020406958 0.017040551
0.32608834 -0.018250506 0.016664747
0.32504722 -0.016088905 0.016288809
0.32305866 -0.014051394 0.015592552
0.32201701 -0.011876925 0.015216301
0.32097515 -0.0096973069 0.014839926
0.31898552 -0.0076340525 0.014143049
0.31794316 -0.0054415669 0.01376636
0.31690055 -0.0032439313 0.013389545
0.31301418 -0.001382498 0.012050933
0.31593862 -0.083059803 0.011444259
0.3196179 -0.07992506 0.012671285
0.32235414 -0.07700967 0.013577814
0.32603499 -0.073913507 0.01480578
0.32782871 -0.071225166 0.015392024
0.32962278 -0.068547137 0.015978493
0.33236152 -0.065690927 0.016886475
0.33321226 -0.063221946 0.017152207
0.33217436 -0.061124738 0.016775327
0.33302528 -0.058660898 0.017041184
0.33293182 -0.056380376 0.016985672
0.33189362 -0.054275449 0.016608603
0.33274487 -0.051819328 0.016874649
0.33265138 -0.049538806 0.016819138
0.33161286 -0.047426146 0.01644188
0.33151928 -0.045143057 0.016386306
0.32953513 -0.043185405 0.015686978
0.32944134 -0.040897157 0.015631277
0.32934755 -0.038608912 0.015575578
0.32925376 -0.036320664 0.015519879
0.32915998 -0.034032427 0.015464179
0.32906616 -0.031744175 0.01540848
0.32897237 -0.029455926 0.01535278
0.3279326 -0.027312389 0.014974771
0.32783869 -0.025021566 0.014919009
0.32774478 -0.022730745 0.014863247
0.32670459 -0.020576915 0.014484995
0.32566416 -0.018417927 0.014106611
0.32367697 -0.01638563 0.013405458
0.32263601 -0.014213773 0.013026767
0.32159486 -0.012036768 0.012647945
0.3196066 -0.0099787293 0.011946172
0.31856492 -0.0077888635 0.011567036
0.31752303 -0.00559384 0.011187774
0.32014596 -0.079958439 0.010410623
0.32288048 -0.077042945 0.011324674
0.32561567 -0.074142843 0.012239113
0.32835153 -0.071258217 0.013153938
0.32920092 -0.068771191 0.013421741
0.33099413 -0.066100791 0.014013417
0.33278784 -0.063440695 0.014605364
0.33269423 -0.061157599 0.01454979
0.33260065 -0.058874495 0.014494215
0.33250707 -0.056591399 0.014438641
0.33241349 -0.05430831 0.014383066
0.33231992 -0.052025199 0.014327493
0.33222634 -0.04974211 0.014271918
0.33213276 -0.047459006 0.014216344
0.33014998 -0.045506589 0.013512121
0.33005619 -0.043218341 0.013456421
0.32901764 -0.041090276 0.013076278
0.32892373 -0.038799461 0.013020515
0.32882982 -0.036508638 0.012964753
0.32873592 -0.034217827 0.012908991
0.32864204 -0.031927004 0.012853229
0.32760283 -0.029783495 0.012472718
0.32845423 -0.027345363 0.012741704
0.32741481 -0.025196711 0.012361068
0.32732081 -0.022903314 0.012305243
0.3262811 -0.020746939 0.011924411
0.32429528 -0.018719867 0.011218371
0.32325503 -0.016550623 0.010837225
0.32221454 -0.014376228 0.010455962
0.32698864 -0.071678646 0.010263567
0.32878023 -0.068995304 0.01085997
0.33057216 -0.066322267 0.011456603
0.33142141 -0.063845485 0.011727167
0.33132759 -0.061557248 0.011671469
0.3312338 -0.059268996 0.011615768
0.33114001 -0.056980748 0.011560068
0.33104622 -0.054692511 0.01150437
0.33095244 -0.052404255 0.011448669
0.33085862 -0.050116017 0.011392971
0.32982096 -0.047995705 0.011010505
0.32972708 -0.04570489 0.010954743
0.3286891 -0.04357687 0.010572097
0.32859507 -0.041283473 0.010516273
0.32850108 -0.038990084 0.010460448
0.32840708 -0.036696687 0.010404623
0.32831308 -0.034403298 0.010348798
0.32821906 -0.032109905 0.010292973
0.32812506 -0.029816506 0.010237148
0.33373401 -0.061223328 0.010098716
