# .PCD v0.7 - Point Cloud Data file format
VERSION 0.7
FIELDS x y z
SIZE 4 4 4
TYPE F F F
COUNT 1 1 1
WIDTH 1348
HEIGHT 1
VIEWPOINT 0 0 0 1 0 0 0
POINTS 1348
DATA ascii
0.62295628 0.10109707 0.0059203873
0.62294495 0.1026494 0.0058944146
0.62293369 0.10420173 0.0058684424
0.62292242 0.10575407 0.0058424696
0.6221838 0.1072932 0.0051295557
0.62217247 0.10884753 0.0051035499
0.62288857 0.11041107 0.0057645524
0.6228773 0.11196341 0.0057385797
0.62286603 0.11351574 0.0057126074
0.62285471 0.11506807 0.0056866352
0.62284344 0.11662041 0.0056606624
0.62283218 0.11817274 0.0056346902
0.62282091 0.11972508 0.0056087174
0.62280965 0.12127741 0.0055827452
0.62279832 0.12282974 0.0055567725
0.62278706 0.12438208 0.0055308002
0.62277579 0.12593442 0.0055048275
0.62276453 0.12748675 0.0054788552
0.62420833 0.12900962 0.0068277419
0.62419713 0.13055797 0.0068018362
0.62418586 0.1321063 0.0067759305
0.62417459 0.13365465 0.0067500249
0.62416333 0.13520299 0.0067241187
0.62415212 0.13675134 0.0066982131
0.62414086 0.13829969 0.0066723074
0.62412959 0.13984802 0.0066464017
0.62411833 0.14139637 0.006620496
0.62410712 0.14294471 0.0065945904
0.62409586 0.14449306 0.0065686847
0.62408459 0.14604139 0.006542779
0.6226179 0.1476671 0.0051412131
0.62260664 0.14921942 0.0051152403
0.62259531 0.15077177 0.0050892681
0.62258404 0.1523241 0.0050632954
0.62257278 0.15387642 0.0050373231
0.62256151 0.15542877 0.0050113504
0.62255019 0.1569811 0.0049853781
0.62253892 0.15853342 0.0049594054
0.62252766 0.16008577 0.0049334331
0.62251639 0.1616381 0.0049074604
0.62250513 0.16319044 0.0048814882
0.6224938 0.16474277 0.0048555154
0.62248254 0.1662951 0.0048295432
0.62247127 0.16784744 0.0048035705
0.62246001 0.16939977 0.0047775982
0.62244868 0.1709521 0.0047516259
0.62389338 0.17236324 0.0061023817
0.62388211 0.17391159 0.0060764761
0.62387085 0.17545994 0.0060505704
0.62385958 0.17700827 0.0060246647
0.6223923 0.17871378 0.0046217632
0.62238103 0.18026611 0.004595791
0.62236977 0.18181844 0.0045698183
0.6223585 0.18337078 0.004543846
0.62234718 0.18492311 0.0045178733
0.62233591 0.18647546 0.004491901
0.62159657 0.18811834 0.0037772506
0.62158525 0.18967266 0.0037512449
0.62230211 0.19113246 0.0044139833
0.62229079 0.19268478 0.0043880111
0.62227952 0.19423711 0.0043620383
0.62226826 0.19578946 0.0043360661
0.62225699 0.19734178 0.0043100934
0.62224567 0.19889411 0.0042841211
0.6222344 0.20044646 0.0042581484
0.62222314 0.20199879 0.0042321761
0.62221187 0.20355111 0.0042062034
0.62365711 0.20487846 0.0055583618
0.62364584 0.2064268 0.0055324561
0.62363464 0.20797515 0.0055065504
0.62362337 0.20952348 0.0054806448
0.62361211 0.21107183 0.0054547391
0.6236009 0.21262017 0.0054288334
0.62358963 0.21416852 0.0054029278
0.62357837 0.21571687 0.0053770216
0.6235671 0.2172652 0.0053511164
0.6235559 0.21881355 0.0053252103
0.62354463 0.22036189 0.0052993046
0.62207651 0.22217913 0.0038945337
0.62206525 0.22373147 0.0038685612
0.62205398 0.2252838 0.003842589
0.62204266 0.22683614 0.0038166163
0.62203139 0.22838847 0.003790644
0.62202013 0.2299408 0.0037646713
0.62200886 0.23149315 0.0037386988
0.62199759 0.23304547 0.0037127265
0.62198627 0.2345978 0.003686754
0.62343216 0.23584533 0.0050402479
0.62342089 0.23739366 0.0050143418
0.62340963 0.23894201 0.0049884361
0.62339836 0.24049036 0.0049625305
0.62338716 0.2420387 0.0049366248
0.62337589 0.24358703 0.0049107191
0.62336463 0.24513538 0.0048848134
0.62335336 0.24668373 0.0048589078
0.62334216 0.24823207 0.0048330021
0.62333089 0.24978042 0.0048070964
0.62331963 0.25132877 0.0047811903
0.62330836 0.25287712 0.0047552846
0.62329715 0.25442547 0.004729379
0.62328589 0.25597379 0.0047034738
0.62327462 0.25752214 0.0046775676
0.62326336 0.25907049 0.004651662
0.62325215 0.26061884 0.0046257563
0.62324089 0.26216716 0.0045998506
0.62322962 0.26371551 0.004573945
0.62321842 0.26526386 0.0045480393
0.62320715 0.26681218 0.0045221336
0.62319589 0.26836053 0.0044962279
0.62318462 0.26990888 0.0044703223
0.62317342 0.27145723 0.0044444161
0.62316215 0.27300557 0.0044185105
0.62315089 0.27455392 0.0043926048
0.62313962 0.27610227 0.0043666991
0.62167048 0.27806318 0.0029595245
0.62165922 0.27961549 0.002933552
0.62310588 0.28074729 0.0042889821
0.62309462 0.28229564 0.0042630765
0.62308341 0.28384396 0.0042371708
0.62307215 0.28539231 0.0042112647
0.62306088 0.28694066 0.004185359
0.62304962 0.28848901 0.0041594533
0.62303841 0.29003733 0.0041335477
0.62302715 0.29158568 0.004107642
0.62301588 0.29313403 0.0040817363
0.62300467 0.29468238 0.0040558307
0.62299341 0.29623073 0.004029925
0.62298214 0.29777908 0.0040040193
0.62297088 0.2993274 0.0039781132
0.62295967 0.30087575 0.0039522075
0.62294841 0.3024241 0.0039263023
0.62293714 0.30397245 0.0039003964
0.62292588 0.30552077 0.0038744907
0.62291467 0.30706912 0.0038485848
0.62290341 0.30861747 0.0038226792
0.62289214 0.31016582 0.0037967735
0.6243394 0.31121382 0.0051535629
0.6243282 0.31275818 0.0051277238
0.62431693 0.31430253 0.0051018852
0.62430573 0.31584689 0.0050760461
0.62429452 0.31739125 0.005050207
0.62428331 0.3189356 0.0050243679
0.62427205 0.32047993 0.0049985293
0.62280214 0.32255256 0.0035895277
0.62279093 0.32410091 0.003563622
0.62277967 0.32564926 0.0035377163
0.6227684 0.32719758 0.0035118107
0.62275714 0.32874593 0.003485905
0.62274593 0.33029428 0.0034599991
0.62273467 0.33184263 0.0034340934
0.6227234 0.33339098 0.0034081878
0.62271214 0.33493933 0.0033822819
0.62270093 0.33648765 0.0033563764
0.62414867 0.33746782 0.0047143009
0.6241374 0.33901218 0.0046884618
0.6241262 0.34055653 0.0046626232
0.62411499 0.34210089 0.0046367841
0.62410378 0.34364524 0.004610945
0.62409252 0.3451896 0.0045851064
0.62408131 0.34673393 0.0045592673
0.62407011 0.34827828 0.0045334282
0.6240589 0.34982264 0.0045075892
0.62404764 0.351367 0.0044817505
0.62403643 0.35291135 0.0044559115
0.62402523 0.35445571 0.0044300724
0.62547338 0.35538399 0.005788906
0.62546217 0.35692433 0.0057631345
0.62545103 0.35846472 0.005737362
0.62543982 0.36000505 0.0057115899
0.62542862 0.36154541 0.0056858175
0.62541741 0.36308581 0.0056600454
0.626136 0.36430615 0.0063267886
0.62539506 0.36616653 0.0056085009
0.62611365 0.36738285 0.0062753116
0.62537265 0.36924723 0.0055569569
0.61679506 -0.099354751 -7.364538e-05
0.61678362 -0.097778469 -0.00010001851
0.61677217 -0.096202187 -0.00012639165
0.61676073 -0.09462592 -0.00015276454
0.61674923 -0.093049638 -0.00017913767
0.61528957 -0.092002623 -0.0015738095
0.61527807 -0.090422347 -0.0016002494
0.61526656 -0.088842072 -0.0016266895
0.61525512 -0.087261818 -0.0016531291
0.61524361 -0.085681543 -0.001679569
0.61523217 -0.084101267 -0.001706009
0.61522067 -0.082521006 -0.0017324487
0.61520916 -0.080940738 -0.0017588886
0.61519772 -0.079360463 -0.0017853286
0.61518621 -0.077780202 -0.0018117683
0.61517471 -0.076199926 -0.0018382082
0.61516327 -0.074619673 -0.0018646478
0.61515176 -0.073039398 -0.0018910879
0.61514032 -0.071459122 -0.0019175278
0.61657745 -0.069405474 -0.00057473395
0.616566 -0.067829199 -0.00060110708
0.61655456 -0.066252917 -0.00062748021
0.61654311 -0.064676635 -0.00065385335
0.61653167 -0.063100368 -0.00068022619
0.61652023 -0.061524089 -0.00070659933
0.61650872 -0.059947807 -0.00073297246
0.61794609 -0.057926103 0.00061031478
0.6179347 -0.056353815 0.00058400846
0.61792326 -0.054781526 0.00055770209
0.61791182 -0.053209238 0.00053139578
0.61790043 -0.051636953 0.00050508947
0.61788899 -0.050064664 0.00047878313
0.61787754 -0.048492376 0.00045247679
0.61786616 -0.046920087 0.00042617047
0.61785471 -0.045347799 0.00039986413
0.61784327 -0.043775514 0.00037355782
0.61783189 -0.042203225 0.00034725148
0.61782044 -0.040630937 0.00032094514
0.617809 -0.039058648 0.00029463883
0.61779761 -0.037486363 0.00026833249
0.61778617 -0.035914075 0.00024202616
0.61777478 -0.034341786 0.00021571983
0.61776334 -0.032769497 0.00018941351
0.6177519 -0.031197211 0.00016310718
0.61774051 -0.029624922 0.00013680085
0.61772907 -0.028052635 0.00011049452
0.61771762 -0.026480347 8.4188192e-05
0.61843091 -0.02472725 0.00074341445
0.61841953 -0.023156943 0.00071714126
0.61840808 -0.021586653 0.00069086836
0.6183967 -0.020016368 0.00066459557
0.61766052 -0.018618915 -4.7343328e-05
0.61764908 -0.017046627 -7.3649659e-05
0.61836249 -0.015305494 0.00058577675
0.61835104 -0.013735202 0.00055950385
0.61833966 -0.012164911 0.00053323089
0.61832821 -0.010594612 0.00050695788
0.61831683 -0.0090243211 0.00048068495
0.61830544 -0.0074540298 0.00045441202
0.61974382 -0.0055699954 0.001800045
0.61973244 -0.0040036896 0.0017738388
0.61972106 -0.0024373909 0.0017476326
0.62115955 -0.00056930672 0.0030934901
0.62114817 0.0009930064 0.0030673507
0.62113684 0.0025553121 0.0030412113
0.62112546 0.0041176253 0.0030150719
0.62111413 0.0056799385 0.0029889324
0.62110281 0.0072422442 0.0029627932
0.62109143 0.0088045569 0.0029366538
0.6210801 0.01036687 0.0029105144
0.62106872 0.011929176 0.0028843749
0.62105739 0.013491489 0.0028582355
0.62104601 0.015053802 0.0028320961
0.62103468 0.016616108 0.0028059569
0.6224736 0.018432315 0.0041527245
0.62246227 0.019990636 0.0041266521
0.62245095 0.021548957 0.0041005793
0.62243962 0.023107277 0.0040745069
0.6224283 0.024665598 0.0040484341
0.62241697 0.026223917 0.0040223612
0.62240565 0.027782237 0.0039962889
0.62239432 0.029340558 0.003970216
0.622383 0.030898878 0.0039441437
0.62237167 0.032457199 0.0039180708
0.62236035 0.034015518 0.0038919982
0.62234902 0.03557384 0.0038659256
0.6223377 0.037132159 0.003839853
0.62232637 0.038690481 0.0038137804
0.62231505 0.0402488 0.0037877078
0.62230372 0.041807119 0.0037616352
0.62374312 0.043555483 0.0051094955
0.62373179 0.045109812 0.0050834897
0.62226975 0.046482079 0.0036834173
0.62225848 0.048040397 0.0036573447
0.62224716 0.049598716 0.0036312719
0.62368661 0.051327132 0.0049794666
0.62367535 0.052881461 0.0049534603
0.62366402 0.05443579 0.0049274545
0.62365276 0.055990119 0.0049014487
0.62364143 0.057544447 0.0048754429
0.62363017 0.05909878 0.0048494372
0.62361884 0.060653105 0.0048234314
0.62360758 0.062207438 0.0047974251
0.62359625 0.063761771 0.0047714193
0.62358499 0.065316096 0.0047454135
0.62357372 0.066870429 0.0047194078
0.62428796 0.068487853 0.0053809024
0.6242767 0.070040181 0.0053549302
0.62426543 0.071592517 0.0053289575
0.62425411 0.073144853 0.0053029852
0.62424284 0.074697189 0.0052770125
0.62423158 0.076249525 0.0052510402
0.62422031 0.077801861 0.0052250675
0.62420905 0.079354189 0.0051990952
0.62419772 0.080906525 0.005173123
0.62418646 0.082458861 0.0051471503
0.62417519 0.08401119 0.005121178
0.62416393 0.085563526 0.0050952053
0.6241526 0.087115861 0.005069233
0.62559289 0.088742517 0.0064191734
0.62558162 0.090290859 0.0063932678
0.62557042 0.091839202 0.0063673621
0.62555915 0.093387544 0.0063414564
0.62554789 0.094935887 0.0063155508
0.62553662 0.096484229 0.0062896451
0.62552541 0.098032579 0.0062637394
0.62551415 0.099580921 0.0062378333
0.62550288 0.10112926 0.0062119276
0.62549168 0.10267761 0.006186022
0.62548041 0.10422595 0.0061601163
0.62546915 0.10577429 0.0061342106
0.62545788 0.10732264 0.006108305
0.62544668 0.10887098 0.0060823993
0.62543541 0.11041933 0.0060564936
0.62542415 0.11196767 0.0060305879
0.62541288 0.11351601 0.0060046823
0.62540168 0.11506436 0.0059787761
0.62539041 0.1166127 0.0059528705
0.62537915 0.11816105 0.0059269648
0.62536788 0.11970939 0.0059010591
0.62535667 0.12125773 0.0058751535
0.62534541 0.12280607 0.0058492478
0.62533414 0.12435442 0.0058233421
0.62532288 0.12590276 0.0057974365
0.62531167 0.12745111 0.0057715308
0.62530041 0.12899944 0.0057456251
0.62528914 0.13054779 0.0057197195
0.62527794 0.13209614 0.0056938133
0.62526667 0.13364448 0.0056679077
0.62525541 0.13519283 0.005642002
0.62524414 0.13674118 0.0056160963
0.62523293 0.13828951 0.0055901906
0.62667412 0.13978048 0.0069423579
0.62666291 0.14132483 0.0069165188
0.62519914 0.14293455 0.0055124736
0.62518793 0.14448288 0.005486568
0.62517667 0.14603123 0.0054606623
0.6251654 0.14757958 0.0054347562
0.62515414 0.14912792 0.0054088505
0.62514293 0.15067627 0.0053829448
0.62513167 0.1522246 0.0053570392
0.6251204 0.15377295 0.0053311335
0.62510914 0.15532129 0.0053052278
0.62509793 0.15686963 0.0052793222
0.62508667 0.15841798 0.0052534165
0.6250754 0.15996632 0.0052275108
0.62506419 0.16151467 0.0052016051
0.62505293 0.163063 0.005175699
0.62504166 0.16461135 0.0051497933
0.6250304 0.16615969 0.0051238877
0.62501919 0.16770804 0.005097982
0.62500793 0.16925639 0.0050720763
0.62499666 0.17080472 0.0050461707
0.6249854 0.17235307 0.005020265
0.62497419 0.17390141 0.0049943593
0.62496293 0.17544976 0.0049684537
0.62495166 0.17699809 0.004942548
0.6249404 0.17854644 0.0049166423
0.62492919 0.18009479 0.0048907362
0.62491792 0.18164314 0.0048648305
0.62490666 0.18319148 0.0048389249
0.62489539 0.18473981 0.0048130192
0.62488419 0.18628816 0.0047871135
0.62487292 0.1878365 0.0047612078
0.62486166 0.18938485 0.0047353022
0.62485045 0.1909332 0.0047093965
0.62483919 0.19248155 0.0046834908
0.62482792 0.19402988 0.0046575852
0.62481666 0.19557822 0.0046316795
0.62480545 0.19712657 0.0046057734
0.62479419 0.19867492 0.0045798677
0.62478292 0.20022325 0.004553962
0.62477165 0.2017716 0.0045280564
0.62476045 0.20331995 0.0045021507
0.62620288 0.20464331 0.0058571221
0.62619162 0.20618767 0.0058312831
0.62618041 0.20773202 0.005805444
0.62471545 0.20951332 0.004398528
0.62470418 0.21106167 0.0043726219
0.62469292 0.21261001 0.0043467162
0.62468165 0.21415836 0.0043208105
0.62467045 0.21570669 0.0042949049
0.62465918 0.21725503 0.0042689992
0.62464792 0.21880338 0.0042430935
0.62463671 0.22035173 0.0042171879
0.62462544 0.22190008 0.0041912822
0.62461418 0.22344841 0.0041653765
0.62460291 0.22499676 0.0041394709
0.62459171 0.2265451 0.0041135652
0.62458044 0.22809345 0.0040876591
0.62456918 0.22964178 0.0040617534
0.62455791 0.23119013 0.0040358477
0.62454671 0.23273848 0.0040099421
0.62453544 0.23428681 0.0039840364
0.62452418 0.23583515 0.0039581307
0.6259672 0.23707473 0.0053145038
0.625956 0.23861909 0.0052886652
0.62594479 0.24016345 0.0052628261
0.62593359 0.24170779 0.005236987
0.62592232 0.24325214 0.0052111484
0.62591112 0.2447965 0.0051853093
0.62589991 0.24634086 0.0051594703
0.62588871 0.2478852 0.0051336312
0.62587744 0.24942955 0.0051077926
0.62586623 0.25097391 0.0050819535
0.62585503 0.25251827 0.0050561144
0.62584382 0.25406262 0.0050302758
0.62583256 0.25560698 0.0050044367
0.62582135 0.25715131 0.0049785976
0.62581015 0.25869566 0.004952759
0.62579894 0.26024002 0.0049269199
0.62578768 0.26178437 0.0049010809
0.6243217 0.26370534 0.003491828
0.62431043 0.26525369 0.0034659221
0.62429917 0.26680201 0.0034400166
0.62428796 0.26835036 0.003414111
0.6242767 0.26989871 0.0033882053
0.62426543 0.27144706 0.0033622994
0.62425417 0.27299541 0.0033363937
0.62424296 0.27454373 0.0033104881
0.6242317 0.27609208 0.0032845822
0.62422043 0.27764043 0.0032586765
0.62420923 0.27918878 0.0032327711
0.62419796 0.2807371 0.0032068652
0.62418669 0.28228545 0.0031809595
0.62417543 0.2838338 0.0031550538
0.62416422 0.28538215 0.0031291479
0.62415296 0.2869305 0.0031032423
0.62414169 0.28847885 0.0030773366
0.62413043 0.29002717 0.0030514309
0.62557453 0.29112709 0.0044101411
0.62556326 0.29267144 0.0043843021
0.62555206 0.2942158 0.004358463
0.62554085 0.29576012 0.0043326244
0.62552965 0.29730448 0.0043067853
0.62551838 0.29884884 0.0042809462
0.62550718 0.30039319 0.0042551076
0.62549597 0.30193755 0.0042292685
0.62548476 0.30348191 0.0042034294
0.6254735 0.30502626 0.0041775904
0.62546229 0.30657062 0.0041517518
0.62545109 0.30811498 0.0041259127
0.62543988 0.3096593 0.0041000736
0.62542862 0.31120369 0.0040742345
0.62541741 0.31274804 0.0040483954
0.62540621 0.3142924 0.0040225568
0.625395 0.31583673 0.0039967177
0.62538373 0.31738108 0.0039708787
0.62537253 0.31892544 0.0039450401
0.62536132 0.3204698 0.003919201
0.62535012 0.32201415 0.0038933619
0.62533885 0.32355851 0.003867523
0.62532765 0.32510287 0.0038416842
0.62531644 0.32664722 0.0038158451
0.62530524 0.32819155 0.0037900063
0.62529397 0.3297359 0.0037641672
0.62528276 0.33128026 0.0037383283
0.62527156 0.33282462 0.0037124895
0.62526035 0.33436897 0.0036866504
0.62524909 0.33591333 0.0036608116
0.62523788 0.33745769 0.0036349725
0.62668294 0.33842987 0.004995862
0.62667173 0.33997023 0.0049700895
0.62666053 0.34151059 0.0049443175
0.62664932 0.34305096 0.0049185455
0.62663817 0.34459132 0.004892773
0.62662697 0.34613168 0.004867001
0.62661576 0.34767205 0.0048412289
0.62660456 0.34921241 0.0048154565
0.62659341 0.35075277 0.0047896844
0.62658221 0.35229313 0.0047639124
0.626571 0.3538335 0.0047381399
0.62655979 0.35537386 0.0047123679
0.62654859 0.35691422 0.0046865959
0.62653744 0.35845459 0.0046608234
0.62652624 0.35999492 0.0046350514
0.62724334 0.36121932 0.0053031226
0.62723219 0.36275765 0.0052773841
0.62867773 0.36365601 0.0066394662
0.62720984 0.36583439 0.0052259066
0.62865543 0.36672479 0.0065881219
0.62718749 0.36891112 0.0051744292
0.61935204 -0.098815881 0.00019542803
0.61934066 -0.0972436 0.00016912169
0.61932921 -0.095671311 0.00014281536
0.61931777 -0.094099022 0.00011650904
0.61786103 -0.093059994 -0.001280777
0.61784953 -0.091483712 -0.0013071501
0.61783808 -0.089907438 -0.0013335233
0.61782664 -0.088331155 -0.0013598964
0.6178152 -0.086754888 -0.0013862693
0.61780375 -0.085178606 -0.0014126424
0.61779231 -0.083602324 -0.0014390156
0.61778086 -0.082026049 -0.0014653887
0.61776936 -0.080449767 -0.0014917619
0.61775792 -0.0788735 -0.0015181347
0.61774647 -0.077297218 -0.0015445078
0.61773503 -0.075720936 -0.001570881
0.61772358 -0.074144654 -0.0015972541
0.61771214 -0.072568379 -0.0016236273
0.6177007 -0.070992112 -0.0016500001
0.61768925 -0.06941583 -0.0016763733
0.61767775 -0.067839548 -0.0017027464
0.6176663 -0.066263266 -0.0017291196
0.61765486 -0.064686991 -0.0017554926
0.61908931 -0.062653281 -0.00040961729
0.61907792 -0.061080992 -0.0004359236
0.61906648 -0.059508704 -0.00046222995
0.61905503 -0.05793643 -0.00048853602
0.61904365 -0.056364141 -0.00051484234
0.6190322 -0.054791857 -0.00054114871
0.61902076 -0.053219568 -0.00056745502
0.61900938 -0.051647279 -0.00059376133
0.619721 -0.049862228 6.6324093e-05
0.61970961 -0.048291937 4.0051167e-05
0.61969817 -0.046721645 1.3778242e-05
0.61968678 -0.045151353 -1.2494684e-05
0.6196754 -0.043581061 -3.8767612e-05
0.61966395 -0.042010769 -6.5040535e-05
0.61965257 -0.040440477 -9.1313465e-05
0.61964113 -0.038870186 -0.00011758639
0.61962974 -0.037299894 -0.00014385932
0.6196183 -0.035729606 -0.00017013225
0.61960691 -0.034159314 -0.00019640516
0.61959553 -0.032589022 -0.00022267809
0.62103063 -0.030641098 0.0011246762
0.62101924 -0.029074799 0.0010984702
0.62100786 -0.027508501 0.001072264
0.62099648 -0.025942203 0.0010460579
0.62098509 -0.024375904 0.0010198518
0.62097371 -0.022809591 0.0009936454
0.62096232 -0.021243291 0.00096743926
0.620951 -0.019676993 0.00094123319
0.62093961 -0.018110694 0.00091502705
0.62092823 -0.016544389 0.0008888208
0.62091684 -0.01497809 0.00086261466
0.62090546 -0.013411792 0.00083640852
0.62089407 -0.011845485 0.00081020233
0.62088269 -0.010279187 0.00078399619
0.62087131 -0.0087128812 0.00075778994
0.62085992 -0.0071465825 0.0007315838
0.6222955 -0.0052665011 0.002080031
0.62228417 -0.0037041879 0.0020538915
0.62227279 -0.0021418824 0.0020277521
0.62370855 -0.00027776379 0.003376506
0.62369722 0.0012805564 0.0033504334
0.6236859 0.0028388768 0.0033243608
0.62367457 0.0043971972 0.0032982882
0.62366325 0.0059555173 0.0032722156
0.62365192 0.0075138374 0.0032461428
0.6236406 0.0090721576 0.0032200702
0.62362927 0.010630478 0.0031939975
0.62361795 0.012188799 0.0031679249
0.62360662 0.013747118 0.0031418523
0.6235953 0.015305439 0.0031157797
0.62358397 0.01686376 0.0030897071
0.62357265 0.01842208 0.0030636345
0.62500876 0.020230334 0.0044132834
0.6249975 0.021784661 0.0043872776
0.62498617 0.02333899 0.0043612714
0.62497491 0.024893317 0.0043352656
0.62496358 0.026447652 0.0043092598
0.62495232 0.028001979 0.004283254
0.62494099 0.029556306 0.0042572482
0.62492973 0.031110633 0.0042312425
0.6249184 0.03266497 0.0042052362
0.62490714 0.034219295 0.0041792304
0.62489581 0.035773624 0.0041532246
0.62488455 0.03732796 0.0041272189
0.62487322 0.038882285 0.0041012131
0.62486196 0.040436614 0.0040752073
0.62485069 0.04199094 0.004049201
0.62483937 0.043545272 0.0040231952
0.6248281 0.045099605 0.0039971895
0.62481678 0.04665393 0.0039711837
0.62480551 0.048208263 0.0039451779
0.62479419 0.049762592 0.0039191716
0.62550688 0.051401976 0.0045816945
0.62549561 0.052954312 0.0045557222
0.62548435 0.054506645 0.0045297495
0.62547308 0.056058977 0.0045037773
0.62546182 0.057611313 0.0044778045
0.62545049 0.059163649 0.0044518323
0.62543923 0.060715981 0.0044258595
0.62542796 0.062268317 0.0043998873
0.6254167 0.063820653 0.0043739146
0.62540537 0.065372981 0.0043479423
0.62539411 0.066925317 0.0043219696
0.62538284 0.068477653 0.0042959973
0.62681997 0.070152216 0.0056479252
0.6268087 0.071700566 0.0056220195
0.62679744 0.073248908 0.0055961139
0.62678617 0.07479725 0.0055702082
0.62677497 0.076345593 0.0055443025
0.6267637 0.077893943 0.0055183964
0.62675244 0.079442285 0.0054924907
0.62674117 0.080990627 0.005466585
0.62672997 0.08253897 0.0054406794
0.6267187 0.084087312 0.0054147737
0.62670743 0.085635655 0.005388868
0.62669623 0.087183997 0.0053629624
0.62668496 0.088732347 0.0053370567
0.62812245 0.090351038 0.0066898768
0.62811118 0.091895394 0.0066640382
0.62809998 0.09343975 0.0066381991
0.62808877 0.094984099 0.00661236
0.62807757 0.096528456 0.0065865214
0.6280663 0.098072805 0.0065606823
0.6280551 0.099617161 0.0065348432
0.62804389 0.10116151 0.0065090042
0.62803268 0.10270587 0.0064831655
0.62802142 0.10425021 0.0064573265
0.62801021 0.10579457 0.0064314874
0.62654996 0.10731247 0.0050261882
0.62653869 0.10886081 0.0050002825
0.62797654 0.11042763 0.0063539706
0.62796533 0.11197198 0.0063281315
0.62795413 0.11351634 0.0063022929
0.62794292 0.11506069 0.0062764538
0.62793165 0.11660504 0.0062506148
0.62647122 0.11815087 0.0048448481
0.62790924 0.11969375 0.0061989371
0.62789804 0.1212381 0.006173098
0.62788677 0.12278245 0.0061472589
0.62642622 0.12434425 0.0047412254
0.62641495 0.12589259 0.0047153193
0.62785316 0.12741551 0.0060697421
0.62784189 0.12895986 0.0060439035
0.62783068 0.13050422 0.0060180645
0.62781948 0.13204858 0.0059922254
0.62780827 0.13359293 0.0059663863
0.62779701 0.13513727 0.0059405477
0.6277858 0.13668163 0.0059147086
0.6277746 0.13822599 0.0058888695
0.62776339 0.13977033 0.0058630309
0.62775213 0.14131469 0.0058371918
0.62774092 0.14285904 0.0058113527
0.62772971 0.1444034 0.0057855137
0.62771851 0.14594775 0.0057596751
0.62770724 0.1474921 0.005733836
0.62769604 0.14903645 0.0057079969
0.62768483 0.15058081 0.0056821583
0.62767363 0.15212516 0.0056563192
0.62766236 0.15366952 0.0056304801
0.62765115 0.15521386 0.0056046415
0.62763995 0.15675822 0.0055788024
0.62762874 0.15830258 0.0055529634
0.62761748 0.15984693 0.0055271243
0.62760627 0.16139127 0.0055012857
0.62759507 0.16293563 0.0054754466
0.62758386 0.16447999 0.0054496075
0.6275726 0.16602434 0.0054237684
0.62756139 0.1675687 0.0053979298
0.62755018 0.16911304 0.0053720907
0.62753898 0.1706574 0.0053462517
0.62752771 0.17220175 0.0053204126
0.62751651 0.17374611 0.005294574
0.6275053 0.17529047 0.0052687349
0.6274941 0.17683482 0.0052428958
0.62748283 0.17837916 0.0052170572
0.62747163 0.17992352 0.0051912181
0.62601 0.18163297 0.0037827138
0.62599874 0.1831813 0.0037568081
0.62598747 0.18472965 0.0037309024
0.6259762 0.186278 0.0037049965
0.625965 0.18782634 0.0036790911
0.62595373 0.18937469 0.0036531852
0.62594247 0.19092302 0.0036272795
0.6259312 0.19247137 0.0036013739
0.62737066 0.1938227 0.0049586678
0.62735945 0.19536705 0.0049328287
0.62734818 0.19691141 0.0049069896
0.62733698 0.19845575 0.0048811506
0.62732577 0.20000011 0.0048553119
0.62731457 0.20154446 0.0048294729
0.6273033 0.20308882 0.0048036338
0.6272921 0.20463316 0.0047777952
0.62728089 0.20617752 0.0047519561
0.62726969 0.20772187 0.004726117
0.62725842 0.20926623 0.0047002784
0.62724721 0.21081057 0.0046744393
0.62723601 0.21235494 0.0046486002
0.6272248 0.21389928 0.0046227612
0.62721354 0.21544364 0.0045969221
0.62720233 0.216988 0.0045710835
0.62719113 0.21853235 0.0045452444
0.62717992 0.2200767 0.0045194053
0.62716866 0.22162105 0.0044935667
0.62715745 0.22316541 0.0044677276
0.62714624 0.22470976 0.0044418885
0.62713504 0.22625411 0.0044160499
0.62712377 0.22779846 0.0043902108
0.62711257 0.22934282 0.0043643718
0.62710136 0.23088716 0.0043385332
0.62709016 0.23243153 0.0043126936
0.62707889 0.23397589 0.004286855
0.62706769 0.23552024 0.0042610159
0.62705648 0.23706459 0.0042351768
0.62849683 0.23829618 0.0055945138
0.62848562 0.23983654 0.0055687418
0.62847441 0.24137692 0.0055429693
0.62846321 0.24291728 0.0055171973
0.62700039 0.24478635 0.0041059824
0.62698913 0.24633071 0.0040801433
0.62842965 0.24753836 0.0054398808
0.62841845 0.24907874 0.0054141083
0.62695551 0.25096378 0.0040026265
0.62694424 0.2525081 0.0039767874
0.62838489 0.25369981 0.0053367917
0.62837368 0.25524017 0.0053110197
0.62836248 0.25678053 0.0052852477
0.62835133 0.2583209 0.0052594752
0.62834013 0.25986126 0.0052337032
0.62832892 0.26140162 0.0052079312
0.62831771 0.26294199 0.0051821587
0.62830657 0.26448235 0.0051563866
0.62829536 0.26602271 0.0051306146
0.62828416 0.26756307 0.0051048421
0.62827295 0.26910344 0.0050790701
0.62826174 0.2706438 0.0050532981
0.6282506 0.27218416 0.0050275256
0.62823939 0.27372453 0.0050017536
0.62677598 0.27567342 0.0035892036
0.62676471 0.27721778 0.0035633645
0.62675351 0.2787621 0.0035375257
0.6267423 0.28030646 0.0035116866
0.6267311 0.28185081 0.0034858477
0.62671983 0.28339517 0.0034600087
0.62670863 0.28493953 0.0034341698
0.62669742 0.28648388 0.003408331
0.62668622 0.28802824 0.0033824919
0.62667495 0.2895726 0.003356653
0.62666374 0.29111692 0.003330814
0.62665254 0.29266128 0.0033049751
0.62664133 0.29420564 0.0032791363
0.62663007 0.29574999 0.0032532972
0.62661886 0.29729435 0.0032274583
0.62660766 0.2988387 0.0032016193
0.62804914 0.29991069 0.0045636268
0.62803793 0.30145106 0.0045378543
0.62802672 0.30299142 0.0045120823
0.62801558 0.30453178 0.0044863098
0.62800437 0.30607215 0.0044605378
0.62799317 0.30761251 0.0044347658
0.62798196 0.30915287 0.0044089938
0.62797081 0.31069323 0.0043832213
0.62795961 0.3122336 0.0043574492
0.6279484 0.31377396 0.0043316768
0.6279372 0.31531432 0.0043059047
0.62792605 0.31685469 0.0042801327
0.62791485 0.31839505 0.0042543607
0.62790364 0.31993538 0.0042285882
0.62789243 0.32147577 0.0042028162
0.62788129 0.32301614 0.0041770437
0.62787008 0.3245565 0.0041512717
0.62785888 0.32609686 0.0041254996
0.62784767 0.3276372 0.0040997276
0.62783647 0.32917756 0.0040739551
0.62782532 0.33071795 0.0040481831
0.62781411 0.33225831 0.0040224106
0.62780291 0.33379868 0.0039966386
0.6277917 0.33533901 0.0039708666
0.62778056 0.33687937 0.0039450945
0.62776935 0.33841974 0.003919322
0.62775815 0.33996013 0.0038935498
0.62774694 0.34150049 0.0038677778
0.62773579 0.34304082 0.0038420055
0.62845135 0.34428716 0.0045111049
0.62771338 0.34612155 0.0037904612
0.62770218 0.34766191 0.0037646892
0.62841779 0.34890226 0.0044338885
0.62840664 0.35044062 0.0044081495
0.62839544 0.35197899 0.0043824106
0.62838429 0.35351735 0.0043566721
0.62837309 0.35505572 0.0043309331
0.62836194 0.35659412 0.0043051941
0.62835073 0.35813245 0.0042794556
0.62833959 0.35967085 0.0042537167
0.62832838 0.36120921 0.0042279777
0.62977105 0.3621116 0.005592783
0.62975991 0.36364594 0.0055671111
0.62974876 0.36518034 0.0055414392
0.62973762 0.36671472 0.0055157668
0.62972647 0.36824906 0.0054900954
0.62046099 -0.098826215 -0.00090342143
0.6204496 -0.097253926 -0.0009297278
0.62043816 -0.095681638 -0.00095603411
0.62042671 -0.094109349 -0.00098234043
0.62041533 -0.09253706 -0.0010086468
0.62040389 -0.090964787 -0.0010349528
0.62039244 -0.089392498 -0.0010612592
0.62038106 -0.08782021 -0.0010875656
0.62036961 -0.086247921 -0.0011138718
0.62035817 -0.08467564 -0.0011401782
0.62034678 -0.083103351 -0.0011664846
0.62033534 -0.081531063 -0.0011927908
0.61888117 -0.080460116 -0.0025934011
0.61886972 -0.078883857 -0.0026197741
0.61885822 -0.077307574 -0.0026461473
0.61884677 -0.075731292 -0.0026725202
0.61883533 -0.07415501 -0.0026988934
0.61882389 -0.072578728 -0.0027252666
0.61881244 -0.071002468 -0.0027516396
0.62024397 -0.068952762 -0.0014032414
0.62023252 -0.067380473 -0.0014295478
0.62022114 -0.065808184 -0.0014558542
0.62020969 -0.064235896 -0.0014821604
0.62019825 -0.062663607 -0.0015084668
0.62018687 -0.061091319 -0.0015347732
0.620897 -0.059294291 -0.00087349419
0.62088561 -0.057723999 -0.00089976715
0.62087417 -0.056153707 -0.00092604005
0.62086278 -0.054583415 -0.00095231301
0.62085134 -0.053013124 -0.00097858591
0.62083995 -0.051442832 -0.0010048589
0.62082857 -0.04987254 -0.0010311317
0.62226051 -0.047880702 0.00031827678
0.62224913 -0.046314403 0.00029207065
0.62223774 -0.044748101 0.00026586454
0.62222642 -0.043181803 0.0002396584
0.62221503 -0.041615505 0.00021345228
0.62220365 -0.040049192 0.00018724591
0.62219226 -0.038482893 0.00016103979
0.62218088 -0.036916595 0.00013483368
0.62216949 -0.035350297 0.00010862755
0.62215811 -0.033783998 8.2421429e-05
0.62214673 -0.032217685 5.6215064e-05
0.62213534 -0.030651387 3.0008941e-05
0.62212396 -0.029085089 3.8028206e-06
0.62211257 -0.02751879 -2.2403301e-05
0.62354499 -0.025586797 0.0013279642
0.62353361 -0.024024492 0.0013018249
0.62352228 -0.022462185 0.0012756856
0.6235109 -0.020899866 0.0012495461
0.62349957 -0.019337559 0.0012234068
0.62348819 -0.017775247 0.0011972673
0.62347686 -0.01621294 0.001171128
0.62346554 -0.014650628 0.0011449886
0.62345415 -0.013088315 0.0011188491
0.62344283 -0.011526009 0.0010927098
0.62343144 -0.0099636959 0.0010665703
0.62342012 -0.0084013827 0.0010404309
0.62340873 -0.006839077 0.0010142915
0.62339741 -0.0052767638 0.00098815211
0.62483025 -0.0034046406 0.0023395624
0.62481892 -0.0018463203 0.0023134898
0.6248076 -0.0002880001 0.0022874172
0.62479633 0.0012703202 0.0022613446
0.62478501 0.0028286404 0.002235272
0.62477368 0.0043869605 0.0022091991
0.62476236 0.0059452811 0.0021831265
0.62475103 0.0075036013 0.0021570539
0.62618411 0.0093398178 0.0035090239
0.62617278 0.010894145 0.0034830181
0.62471706 0.012178563 0.0020788361
0.62470573 0.013736882 0.0020527635
0.62469441 0.015295203 0.0020266909
0.6261276 0.017111462 0.0033789948
0.62611634 0.018665789 0.0033529887
0.62610507 0.020220125 0.003326983
0.62681603 0.021897428 0.0039902665
0.62680477 0.023449767 0.0039642937
0.6267935 0.025002098 0.0039383215
0.62678224 0.026554428 0.0039123488
0.62677097 0.028106768 0.0038863763
0.62675965 0.029659098 0.0038604038
0.62674838 0.031211438 0.0038344313
0.62673712 0.032763768 0.0038084588
0.62672585 0.034316108 0.0037824863
0.62671453 0.035868436 0.0037565138
0.62670326 0.037420768 0.0037305416
0.626692 0.038973108 0.0037045688
0.62668073 0.040525436 0.0036785966
0.62666947 0.042077772 0.0036526241
0.62665814 0.043630108 0.0036266516
0.62664688 0.04518244 0.0036006791
0.62663561 0.046734776 0.0035747066
0.62662435 0.048287112 0.0035487341
0.62805825 0.050013583 0.0049025826
0.62804699 0.051561926 0.0048766769
0.62803572 0.053110268 0.0048507713
0.62802452 0.054658614 0.0048248656
0.62801325 0.056206957 0.0047989599
0.62800199 0.057755303 0.0047730538
0.62799072 0.059303645 0.0047471481
0.62797952 0.060851991 0.0047212425
0.62796825 0.06240033 0.0046953368
0.62795699 0.063948676 0.0046694311
0.62794572 0.065497018 0.0046435255
0.62793452 0.067045361 0.0046176198
0.62792325 0.068593703 0.0045917141
0.62791198 0.070142046 0.0045658085
0.62790078 0.071690395 0.0045399028
0.62933511 0.073353015 0.0058947769
0.6293239 0.074897364 0.0058689383
0.62931263 0.07644172 0.0058430992
0.62930143 0.077986069 0.0058172601
0.62929022 0.079530425 0.0057914215
0.62927902 0.081074782 0.0057655824
0.62926775 0.082619131 0.0057397434
0.62925655 0.084163487 0.0057139043
0.62924534 0.085707836 0.0056880657
0.62923414 0.087252192 0.0056622266
0.62922287 0.088796541 0.0056363875
0.62921166 0.090340897 0.0056105489
0.62920046 0.091885246 0.0055847098
0.62918925 0.093429603 0.0055588707
0.63062406 0.095032364 0.0069147879
0.63061285 0.096572727 0.0068890154
0.63060164 0.09811309 0.0068632434
0.63059044 0.099653453 0.0068374714
0.62913311 0.10115137 0.0054296763
0.6291219 0.10269572 0.0054038372
0.62911069 0.10424007 0.0053779981
0.62909949 0.10578442 0.005352159
0.62908822 0.10732878 0.0053263204
0.62907702 0.10887313 0.0053004813
0.62906581 0.11041749 0.0052746423
0.62905461 0.11196184 0.0052488036
0.62904334 0.11350619 0.0052229646
0.62903214 0.11505055 0.0051971255
0.62902093 0.1165949 0.0051712864
0.62900972 0.11813925 0.0051454478
0.62899846 0.11968361 0.0051196087
0.62898725 0.12122796 0.0050937696
0.62897605 0.12277231 0.005067931
0.62896484 0.12431666 0.0050420919
0.62895358 0.12586102 0.0050162529
0.62894237 0.12740538 0.0049904138
0.62893116 0.12894972 0.0049645752
0.62891996 0.13049407 0.0049387361
0.62890869 0.13203843 0.004912897
0.62889749 0.13358279 0.0048870584
0.62888628 0.13512713 0.0048612193
0.62887508 0.13667148 0.0048353802
0.63031065 0.13816251 0.0061931666
0.63029951 0.13970287 0.0061673946
0.6302883 0.14124323 0.0061416226
0.6302771 0.1427836 0.0061158501
0.63026589 0.14432396 0.006090078
0.63025475 0.14586432 0.006064306
0.63024354 0.14740469 0.0060385335
0.63023233 0.14894505 0.0060127615
0.63022113 0.15048541 0.0059869895
0.63020992 0.15202577 0.005961217
0.62875164 0.15365937 0.0045511518
0.62874037 0.15520371 0.0045253132
0.62872916 0.15674807 0.0044994741
0.62871796 0.15829243 0.004473635
0.62870675 0.15983678 0.0044477964
0.62869549 0.16138114 0.0044219573
0.62868428 0.1629255 0.0043961182
0.62867308 0.16446984 0.0043702791
0.62866187 0.16601419 0.0043444405
0.62865061 0.16755855 0.0043186015
0.6286394 0.16910291 0.0042927624
0.62862819 0.17064725 0.0042669233
0.62861699 0.17219162 0.0042410847
0.62860572 0.17373596 0.0042152456
0.62859452 0.17528032 0.0041894065
0.62858331 0.17682467 0.0041635674
0.62857211 0.17836903 0.0041377288
0.62856084 0.17991337 0.0041118897
0.62854964 0.18145773 0.0040860507
0.62853843 0.18300208 0.0040602121
0.62852722 0.18454644 0.004034373
0.62851596 0.18609078 0.0040085339
0.62850475 0.18763514 0.0039826948
0.62849355 0.18917949 0.0039568562
0.62848234 0.19072385 0.0039310171
0.62847108 0.19226819 0.0039051783
0.62845987 0.19381255 0.0038793392
0.62844867 0.19535691 0.0038535004
0.62843746 0.19690126 0.0038276615
0.62842619 0.19844562 0.0038018224
0.62841499 0.19998996 0.0037759836
0.62840378 0.20153432 0.0037501445
0.62984061 0.20285773 0.0051107355
0.62982947 0.2043981 0.005084963
0.62981826 0.20593846 0.005059191
0.62980705 0.20747882 0.005033419
0.62979585 0.20901918 0.0050076465
0.62978464 0.21055955 0.0049818745
0.6297735 0.21209991 0.0049561025
0.62976229 0.21364027 0.00493033
0.62975109 0.21518064 0.004904558
0.62973988 0.216721 0.0048787859
0.62972873 0.21826136 0.0048530134
0.62971753 0.21980172 0.0048272414
0.62970632 0.22134209 0.0048014694
0.62969512 0.22288245 0.0047756969
0.62968397 0.22442281 0.0047499249
0.63039696 0.22582278 0.0054178471
0.63038582 0.22736114 0.0053921081
0.62965035 0.2290439 0.0046726083
0.62963921 0.23058425 0.0046468363
0.629628 0.23212463 0.0046210638
0.6296168 0.23366499 0.0045952918
0.62960559 0.23520535 0.0045695198
0.62959439 0.2367457 0.0045437473
0.63030756 0.23812972 0.0052119368
0.62957203 0.23982643 0.0044922032
0.62956083 0.2413668 0.0044664307
0.62954962 0.24290717 0.0044406587
0.62953848 0.24444751 0.0044148867
0.62952727 0.24598788 0.0043891142
0.62951607 0.24752824 0.0043633422
0.62950486 0.24906862 0.0043375697
0.62949371 0.25060898 0.0043117977
0.62948251 0.25214934 0.0042860257
0.6301958 0.2535134 0.0049545486
0.63018465 0.25505176 0.0049288101
0.63017344 0.25659013 0.0049030711
0.63016224 0.25812849 0.0048773326
0.63015109 0.25966686 0.0048515936
0.63013989 0.26120523 0.0048258547
0.63012874 0.26274359 0.0048001162
0.63011754 0.26428196 0.0047743772
0.62938178 0.26601258 0.004054076
0.62937057 0.26755297 0.0040283035
0.62935936 0.26909333 0.0040025315
0.62934822 0.2706337 0.0039767595
0.62933701 0.27217403 0.0039509875
0.62932581 0.27371439 0.0039252155
0.6293146 0.27525476 0.0038994432
0.62930346 0.27679515 0.0038736707
0.62929225 0.27833551 0.0038478987
0.63000578 0.27966562 0.004516989
0.62999463 0.28120399 0.0044912505
0.62925869 0.28295657 0.0037705821
0.62924749 0.28449693 0.0037448101
0.62923628 0.28603733 0.0037190376
0.62922508 0.28757766 0.0036932656
0.62993872 0.28889582 0.0043625566
0.62920272 0.29065838 0.0036417213
0.62919152 0.29219875 0.0036159491
0.62918031 0.29373911 0.003590177
0.62916911 0.29527947 0.0035644046
0.62915796 0.29681984 0.0035386325
0.62987167 0.29812604 0.0042081238
0.62986046 0.29966441 0.0041823848
0.62984931 0.30120277 0.0041566463
0.62983811 0.30274114 0.0041309074
0.62982696 0.30427951 0.0041051684
0.62981576 0.30581787 0.0040794299
0.62980461 0.30735624 0.0040536909
0.62979341 0.3088946 0.004027952
0.62978226 0.31043297 0.0040022135
0.62977105 0.31197134 0.0039764745
0.62975991 0.3135097 0.003950736
0.63119888 0.31453583 0.0053162598
0.63118774 0.3160702 0.0052905879
0.63117653 0.31760457 0.0052649155
0.63116539 0.31913894 0.0052392436
0.629704 0.32120156 0.0038220417
0.62969285 0.32273993 0.0037963029
0.62968165 0.32427827 0.0037705642
0.6296705 0.32581663 0.0037448255
0.6296593 0.32735503 0.0037190865
0.62964815 0.32889339 0.0036933478
0.62963694 0.33043176 0.0036676091
0.62962574 0.33197013 0.0036418703
0.62961459 0.33350849 0.0036161314
0.62960339 0.33504686 0.0035903926
0.63104278 0.3360171 0.0049568512
0.63103163 0.33755147 0.0049311793
0.63102049 0.33908585 0.0049055074
0.63100934 0.34062022 0.0048798351
0.62954754 0.34273869 0.0034616985
0.62953633 0.34427705 0.0034359598
0.62952518 0.34581542 0.0034102208
0.62951398 0.34735379 0.0033844821
0.62950283 0.34889215 0.0033587434
0.62949163 0.35043052 0.0033330047
0.62948048 0.35196888 0.0033072657
0.63092017 0.35289523 0.0046744589
0.63090903 0.3544296 0.004648787
0.63089788 0.355964 0.0046231151
0.63088673 0.35749838 0.0045974427
0.63087559 0.35903275 0.0045717712
0.63086444 0.36056712 0.0045460989
0.63085324 0.36210153 0.0045204265
0.63084209 0.36363587 0.0044947551
0.63083094 0.36517024 0.0044690827
0.6308198 0.36670464 0.0044434108
0.63080865 0.36823899 0.0044177389
0.62374079 -0.099578932 8.841294e-05
0.62372941 -0.098012634 6.2206818e-05
0.62371802 -0.096446335 3.60007e-05
0.62370664 -0.094880037 9.7945804e-06
0.62513494 -0.09277641 0.0013600809
0.62512362 -0.091214105 0.0013339416
0.6251123 -0.089651801 0.0013078023
0.62510091 -0.088089481 0.0012816626
0.62508959 -0.086527176 0.0012555233
0.62363839 -0.085482225 -0.00014744239
0.62362701 -0.083915912 -0.00017364876
0.62361562 -0.082349613 -0.00019985488
0.62360424 -0.080783315 -0.00022606101
0.62215286 -0.079718411 -0.0016294018
0.62214142 -0.078148104 -0.001655675
0.62213004 -0.076577812 -0.0016819478
0.62211859 -0.075007521 -0.0017082208
0.62210721 -0.073437229 -0.0017344938
0.62209582 -0.071866937 -0.0017607666
0.62352455 -0.069819212 -0.00040950411
0.62351322 -0.068252914 -0.00043571022
0.62350184 -0.0666866 -0.00046191658
0.62349045 -0.065120302 -0.00048812272
0.62347907 -0.063554004 -0.00051432883
0.62346768 -0.061987706 -0.00054053497
0.6234563 -0.060421407 -0.0005667411
0.62488526 -0.058405582 0.00078501418
0.62487388 -0.056843277 0.00075887487
0.62486255 -0.055280957 0.00073273527
0.62341076 -0.054156199 -0.00067156582
0.62483984 -0.052156344 0.00068045664
0.62482852 -0.050594024 0.00065431709
0.62481713 -0.04903172 0.00062817778
0.62480581 -0.047469415 0.00060203846
0.62479442 -0.045907091 0.00057589891
0.6247831 -0.044344787 0.0005497596
0.62477171 -0.042782482 0.00052362029
0.62476039 -0.041220162 0.00049748068
0.62474906 -0.039657857 0.00047134139
0.62473768 -0.038095549 0.00044520205
0.62472636 -0.036533229 0.0004190625
0.62471497 -0.034970924 0.00039292319
0.62470365 -0.033408619 0.00036678388
0.62469226 -0.031846296 0.0003406443
0.62468094 -0.030283991 0.00031450498
0.62466955 -0.028721686 0.00028836567
0.62609917 -0.026789682 0.001641563
0.62608784 -0.025231354 0.0016154903
0.62607652 -0.023673041 0.0015894178
0.62606525 -0.022114713 0.001563345
0.62605393 -0.0205564 0.0015372725
0.6260426 -0.018998072 0.0015111997
0.62603128 -0.017439753 0.0014851271
0.62601995 -0.015881432 0.0014590544
0.62600863 -0.014323112 0.0014329818
0.6259973 -0.012764791 0.0014069092
0.62598598 -0.011206471 0.0013808366
0.62597466 -0.0096481508 0.001354764
0.62740457 -0.0077680168 0.002708788
0.62739331 -0.0062136892 0.0026827822
0.62738198 -0.0046593617 0.0026567765
0.62737072 -0.0031050344 0.0026307707
0.62735945 -0.0015506995 0.0026047647
0.6280688 0.00015455263 0.0032689755
0.62805754 0.0017068911 0.003243003
0.62804627 0.003259222 0.0032170305
0.62731427 0.0046666176 0.0025007413
0.62730294 0.0062209452 0.0024747355
0.62729168 0.0077752727 0.0024487295
0.62800115 0.009468561 0.0031131406
0.62798989 0.011020892 0.0030871683
0.62797862 0.01257323 0.0030611956
0.6279673 0.014125561 0.0030352233
0.62795603 0.015677892 0.0030092509
0.62794477 0.017230231 0.0029832784
0.62937528 0.019036543 0.0043385797
0.62936401 0.020584881 0.0043126745
0.62935281 0.022133227 0.0042867684
0.62934154 0.023681572 0.0042608627
0.62933028 0.02522991 0.004234957
0.62931907 0.026778257 0.0042090514
0.62930781 0.028326603 0.0041831457
0.6307385 0.030100984 0.005538939
0.63072729 0.031645339 0.0055131004
0.63071609 0.033189692 0.0054872613
0.63070482 0.034734044 0.0054614223
0.63069361 0.036278397 0.0054355836
0.63068241 0.037822749 0.0054097446
0.6306712 0.039367102 0.0053839055
0.63065994 0.040911455 0.0053580664
0.63064873 0.042455804 0.0053322278
0.63063753 0.04400016 0.0053063887
0.63062632 0.045544513 0.0052805496
0.63061506 0.047088865 0.005254711
0.63060385 0.048633218 0.0052288719
0.63059264 0.05017757 0.0052030329
0.63058144 0.051721923 0.0051771943
0.63057017 0.053266276 0.0051513552
0.63055897 0.054810628 0.0051255161
0.63054776 0.056354981 0.005099677
0.63053656 0.057899334 0.0050738384
0.63052529 0.059443686 0.0050479993
0.63051409 0.060988039 0.0050221602
0.63050288 0.062532395 0.0049963216
0.63049167 0.064076751 0.0049704826
0.63048041 0.0656211 0.0049446435
0.6304692 0.067165457 0.0049188044
0.630458 0.068709806 0.0048929658
0.63044679 0.070254162 0.0048671267
0.63043553 0.071798511 0.0048412876
0.63042432 0.073342867 0.004815449
0.63041312 0.074887224 0.0047896099
0.63184476 0.076537892 0.0061475155
0.63183355 0.078078263 0.0061217435
0.63182241 0.079618618 0.006095971
0.6318112 0.081158981 0.006070199
0.6318 0.082699344 0.0060444269
0.63178879 0.084239706 0.0060186544
0.63177764 0.085780069 0.0059928824
0.63176644 0.087320432 0.0059671104
0.63175523 0.088860795 0.0059413379
0.63174403 0.090401158 0.0059155659
0.63173282 0.091941521 0.0058897939
0.63172168 0.093481883 0.0058640214
0.63243204 0.09505146 0.0065305009
0.6324209 0.096589826 0.0065047625
0.63240969 0.0981282 0.0064790235
0.63239855 0.099666566 0.0064532845
0.63238734 0.10120493 0.006427546
0.63237619 0.1027433 0.0064018071
0.6316433 0.10426442 0.0056836163
0.63163215 0.10580479 0.0056578442
0.63162094 0.10734515 0.0056320718
0.63233149 0.10889677 0.0062988522
0.63232028 0.11043514 0.0062731132
0.63230914 0.1119735 0.0062473742
0.63229793 0.11351187 0.0062216357
0.63228673 0.11505023 0.0061958968
0.63155377 0.11658732 0.0054774387
0.63154256 0.11812768 0.0054516667
0.63225323 0.11966534 0.0061186804
0.63224202 0.12120371 0.0060929414
0.63223088 0.12274207 0.0060672029
0.6314978 0.12428913 0.0053485781
0.63148665 0.12582949 0.0053228056
0.63147545 0.12736987 0.0052970336
0.63218617 0.12889554 0.0059642475
0.63217497 0.1304339 0.005938509
0.63216382 0.13197227 0.0059127701
0.63215262 0.13351065 0.0058870311
0.63214147 0.13504902 0.0058612926
0.63213027 0.13658738 0.0058355536
0.63211912 0.13812575 0.0058098147
0.63210791 0.13966411 0.0057840762
0.63354081 0.14114119 0.0071448437
0.63352966 0.14267556 0.0071191718
0.63351852 0.14420995 0.0070934999
0.63350737 0.14574432 0.0070678275
0.63349622 0.1472787 0.0070421556
0.63348508 0.14881308 0.0070164837
0.63347393 0.15034746 0.0069908118
0.63346279 0.15188183 0.0069651394
0.63345158 0.1534162 0.0069394675
0.63344043 0.15495059 0.0069137956
0.63198495 0.15658616 0.0055009495
0.6319738 0.15812452 0.0054752105
0.6319626 0.15966289 0.0054494715
0.63195145 0.16120125 0.005423733
0.63194025 0.16273962 0.0053979941
0.6319291 0.16427799 0.0053722551
0.63191789 0.16581635 0.0053465166
0.63190675 0.16735472 0.0053207777
0.63189554 0.16889308 0.0052950392
0.6318844 0.17043146 0.0052693002
0.63187319 0.17196982 0.0052435612
0.63186204 0.1735082 0.0052178223
0.63185084 0.17504656 0.0051920838
0.63183969 0.17658493 0.0051663448
0.63182849 0.1781233 0.0051406063
0.63181734 0.17966166 0.0051148674
0.63325095 0.18103498 0.0064773709
0.63323981 0.18256937 0.006451699
0.63322866 0.18410374 0.006426027
0.63321751 0.18563811 0.0064003547
0.63320637 0.18717249 0.0063746828
0.63175023 0.18889186 0.0049604345
0.63173908 0.19043022 0.004934696
0.63172787 0.19196859 0.0049089571
0.63316178 0.19331001 0.0062719947
0.63315064 0.19484438 0.0062463228
0.63313949 0.19637875 0.0062206509
0.63312835 0.19791313 0.0061949785
0.63311714 0.19944751 0.0061693066
0.63310599 0.20098189 0.0061436347
0.63309485 0.20251626 0.0061179628
0.6330837 0.20405063 0.0060922909
0.63307256 0.20558502 0.0060666185
0.63306141 0.20711939 0.0060409466
0.63305026 0.20865378 0.0060152747
0.63303912 0.21018814 0.0059896028
0.63302797 0.21172252 0.0059639304
0.63301682 0.2132569 0.0059382585
0.63300568 0.21479128 0.0059125866
0.63299453 0.21632566 0.0058869142
0.63298339 0.21786003 0.0058612423
0.63297224 0.2193944 0.0058355704
0.63296109 0.22092879 0.0058098985
0.63294995 0.22246316 0.0057842261
0.6329388 0.22399753 0.0057585542
0.63292766 0.22553191 0.0057328823
0.63291651 0.22706629 0.0057072104
0.63290536 0.22860067 0.005681538
0.63289422 0.23013504 0.0056558661
0.63288307 0.23166943 0.0056301942
0.63287193 0.23320378 0.0056045223
0.63286078 0.23473817 0.0055788499
0.63284963 0.23627253 0.0055531785
0.63283849 0.23780692 0.0055275061
0.63282734 0.23934129 0.0055018342
0.6328162 0.24087568 0.0054761618
0.63280505 0.24241005 0.0054504899
0.63279384 0.24394442 0.005424818
0.6327827 0.24547879 0.0053991461
0.63277155 0.24701317 0.0053734742
0.63276041 0.24854755 0.0053478018
0.63274926 0.25008193 0.0053221299
0.63273811 0.2516163 0.005296458
0.63417321 0.25279808 0.0066622086
0.63416207 0.25432849 0.0066366033
0.63415098 0.25585887 0.006610998
0.63413984 0.25738925 0.0065853926
0.63412869 0.25891963 0.0065597878
0.6341176 0.26045004 0.006534182
0.63266009 0.26235694 0.0051167537
0.63264894 0.26389131 0.0050910814
0.6326378 0.26542568 0.0050654095
0.63262665 0.26696008 0.0050397376
0.63261551 0.26849446 0.0050140657
0.63260436 0.27002883 0.0049883937
0.63259321 0.2715632 0.0049627214
0.63258207 0.27309757 0.0049370495
0.63257092 0.27463198 0.0049113776
0.63255978 0.27616632 0.0048857052
0.63254863 0.27770069 0.0048600333
0.63398415 0.27881467 0.0062269191
0.63397306 0.28034505 0.0062013138
0.63396192 0.28187543 0.0061757085
0.63395083 0.28340581 0.0061501032
0.63393968 0.28493622 0.0061244979
0.6339286 0.2864666 0.006098893
0.63391745 0.28799698 0.0060732877
0.6339063 0.28952736 0.0060476824
0.63389522 0.29105774 0.0060220771
0.63388407 0.29258814 0.0059964717
0.63387299 0.29411852 0.0059708664
0.63386184 0.2956489 0.0059452611
0.63385075 0.29717928 0.0059196563
0.63383961 0.29870969 0.0058940505
0.63382852 0.30024007 0.0058684456
0.63381737 0.30177045 0.0058428403
0.63380629 0.30330083 0.005817235
0.63379514 0.30483124 0.0057916297
0.633784 0.30636162 0.0057660243
0.63377291 0.30789199 0.005740419
0.63376176 0.30942237 0.0057148137
0.63375068 0.31095275 0.0056892089
0.63373953 0.31248316 0.0056636035
