# .PCD v0.7 - Point Cloud Data file format
VERSION 0.7
FIELDS x y z
SIZE 4 4 4
TYPE F F F
COUNT 1 1 1
WIDTH 1351
HEIGHT 1
VIEWPOINT 0 0 0 1 0 0 0
POINTS 1351
DATA ascii
0.67927134 0.16641764 0.0062762736
0.67926067 0.16788818 0.00625167
0.67925 0.1693587 0.0062270663
0.67923927 0.17082924 0.0062024626
0.6792286 0.17229976 0.0061778589
0.67921793 0.17377028 0.0061532548
0.67920727 0.17524081 0.0061286511
0.67919654 0.17671134 0.0061040474
0.67918587 0.17818187 0.0060794437
0.6791752 0.17965239 0.0060548401
0.67916453 0.18112291 0.0060302364
0.6791538 0.18259345 0.0060056322
0.67983466 0.18397376 0.0067059621
0.67982399 0.1854423 0.006681392
0.67981333 0.18691082 0.0066568214
0.67980266 0.18837936 0.0066322512
0.67979199 0.18984789 0.0066076806
0.67978132 0.19131643 0.0065831104
0.67977065 0.19278495 0.0065585398
0.67975998 0.19425349 0.0065339697
0.67974925 0.19572201 0.006509399
0.67973858 0.19719055 0.0064848289
0.67972791 0.19865909 0.0064602583
0.67971724 0.20012762 0.0064356881
0.67970657 0.20159614 0.006411118
0.6796959 0.20306468 0.0063865473
0.67968524 0.2045332 0.0063619772
0.67898285 0.20612189 0.0056119724
0.67897218 0.20759241 0.0055873687
0.67965323 0.20893881 0.0062882658
0.67964256 0.21040733 0.0062636957
0.67894012 0.21200401 0.0055135572
0.67892945 0.21347453 0.0054889536
0.67891878 0.21494505 0.0054643499
0.67890811 0.21641558 0.0054397462
0.67958921 0.21775 0.0061408435
0.67957854 0.21921854 0.0061162733
0.67956787 0.22068706 0.0060917032
0.6795572 0.2221556 0.0060671326
0.67954654 0.22362413 0.0060425624
0.67953587 0.22509266 0.0060179918
0.6795252 0.2265612 0.0059934217
0.67951453 0.22802973 0.005968851
0.67950386 0.22949825 0.0059442809
0.67949319 0.23096679 0.0059197103
0.67948252 0.23243532 0.0058951401
0.67947185 0.23390386 0.00587057
0.67946118 0.23537238 0.0058459993
0.67945051 0.23684092 0.0058214292
0.67943984 0.23830944 0.0057968586
0.67942917 0.23977798 0.0057722884
0.6794185 0.24124652 0.0057477178
0.67940784 0.24271505 0.0057231477
0.67939717 0.24418359 0.005698577
0.6793865 0.24565211 0.0056740064
0.67937583 0.24712065 0.0056494363
0.68074948 0.24823318 0.0070777135
0.68073887 0.24969772 0.0070532099
0.6807282 0.25116226 0.0070287064
0.68071759 0.25262681 0.0070042028
0.68070692 0.25409135 0.0069796992
0.68069631 0.25555587 0.0069551957
0.68068564 0.25702041 0.0069306921
0.68067503 0.25848496 0.0069061886
0.6792798 0.26033744 0.005428303
0.67926913 0.26180598 0.0054037324
0.67925847 0.26327449 0.0053791623
0.6792478 0.26474303 0.0053545916
0.67923713 0.26621154 0.0053300215
0.67922646 0.26768008 0.0053054513
0.67921579 0.26914862 0.0052808807
0.68058985 0.2702013 0.0067101596
0.68057925 0.27166584 0.006685656
0.68056858 0.27313039 0.0066611525
0.67917311 0.27502275 0.0051825992
0.67916244 0.27649128 0.005158029
0.68053669 0.27752399 0.0065876413
0.68052602 0.27898854 0.0065631378
0.68051541 0.28045309 0.0065386342
0.68050474 0.28191763 0.0065141306
0.68049413 0.28338218 0.0064896271
0.68048346 0.28484672 0.0064651235
0.68047285 0.28631127 0.0064406199
0.68046218 0.28777581 0.0064161164
0.68114412 0.28900647 0.0071189492
0.68113345 0.29046899 0.0070944792
0.68112284 0.29193154 0.0070700087
0.68041962 0.29363397 0.0063181017
0.68040895 0.29509851 0.0062935981
0.68039834 0.29656303 0.0062690945
0.68038768 0.29802758 0.006244591
0.68037707 0.29949212 0.0062200874
0.6803664 0.30095667 0.0061955838
0.68035579 0.30242121 0.0061710803
0.68034512 0.30388576 0.0061465767
0.68033451 0.3053503 0.0061220732
0.68032384 0.30681485 0.0060975691
0.68031323 0.3082794 0.0060730656
0.68030256 0.30974391 0.006048562
0.68029195 0.31120846 0.0060240584
0.68028128 0.312673 0.0059995549
0.68027067 0.31413755 0.0059750513
0.68026 0.31560209 0.0059505478
0.68024939 0.31706664 0.0059260442
0.68023872 0.31853116 0.0059015406
0.68022811 0.3199957 0.0058770371
0.68021744 0.32146025 0.0058525335
0.68020684 0.32292479 0.0058280299
0.68019617 0.32438934 0.0058035264
0.68018556 0.32585388 0.0057790224
0.68017489 0.32731843 0.0057545188
0.68016428 0.32878298 0.0057300152
0.68015361 0.33024749 0.0057055117
0.68014294 0.33171204 0.0056810081
0.68013233 0.33317658 0.0056565045
0.67873567 0.33523256 0.0041752146
0.68011105 0.33610567 0.0056074974
0.68010038 0.33757022 0.0055829939
0.68008977 0.33903474 0.0055584903
0.6800791 0.34049928 0.0055339867
0.68006849 0.34196383 0.0055094832
0.68005782 0.34342837 0.0054849796
0.68004721 0.34489292 0.005460476
0.68003654 0.34635746 0.0054359725
0.68002594 0.34782201 0.0054114684
0.68001527 0.34928656 0.0053869649
0.68000466 0.3507511 0.0053624613
0.67999399 0.35221562 0.0053379578
0.68067652 0.35335848 0.0060422597
0.68066591 0.35482103 0.0060177897
0.6806553 0.35628358 0.0059933192
0.68064463 0.35774612 0.0059688492
0.68063402 0.35920867 0.0059443791
0.68062341 0.36067122 0.0059199086
0.6806128 0.36213374 0.0058954386
0.68198878 0.36292505 0.0073290896
0.68197817 0.36438361 0.0073046861
0.68196756 0.36584219 0.0072802827
0.68195695 0.36730072 0.0072558797
0.68055964 0.36944652 0.005773087
0.68054903 0.37090904 0.005748617
0.67396218 -0.098812759 0.00098810485
0.67395133 -0.097318292 0.00096310041
0.67394042 -0.095823817 0.00093809603
0.67392957 -0.09432935 0.0009130917
0.67391872 -0.092834875 0.00088808732
0.67390788 -0.0913404 0.00086308294
0.67527187 -0.089292064 0.0022784488
0.67526102 -0.087801583 0.0022535112
0.67525023 -0.086311102 0.0022285737
0.67523938 -0.084820613 0.0022036359
0.67522854 -0.083330132 0.0021786983
0.67521775 -0.081839651 0.0021537608
0.6752069 -0.080349177 0.0021288232
0.67519605 -0.078858696 0.0021038856
0.67518526 -0.077368215 0.0020789481
0.67517442 -0.075877734 0.0020540105
0.67516357 -0.07438726 0.002029073
0.67515272 -0.072896779 0.0020041354
0.67514193 -0.071406297 0.0019791978
0.67375588 -0.070417807 0.00051302195
0.67374498 -0.068923339 0.00048801757
0.67373413 -0.067428879 0.00046301345
0.67372328 -0.065934412 0.0004380091
0.67371243 -0.064439937 0.00041300472
0.67370158 -0.062945463 0.00038800034
0.67369074 -0.061450992 0.00036299595
0.67367983 -0.059956521 0.0003379916
0.67366898 -0.05846205 0.00031298722
0.67365813 -0.056967579 0.00028798284
0.67364728 -0.055473104 0.00026297846
0.67363644 -0.053978633 0.00023797409
0.67500114 -0.052030057 0.0016550091
0.6749903 -0.050539576 0.0016300716
0.67497951 -0.049049098 0.001605134
0.67496866 -0.047558617 0.0015801964
0.67495781 -0.046068124 0.0015552585
0.67494696 -0.044577643 0.001530321
0.67493618 -0.043087166 0.0015053834
0.67492533 -0.041596685 0.0014804458
0.67491448 -0.040106207 0.0014555083
0.67490369 -0.03861573 0.0014305707
0.67489284 -0.037125248 0.0014056332
0.67488199 -0.035634771 0.0013806956
0.67487121 -0.03414429 0.0013557581
0.67486036 -0.032653812 0.0013308205
0.67484951 -0.031163333 0.0013058829
0.67483872 -0.029672854 0.0012809454
0.67482787 -0.028182374 0.0012560077
0.67481703 -0.02669188 0.0012310699
0.67480624 -0.025201416 0.0012061326
0.67617148 -0.02333265 0.0026245036
0.67616069 -0.021846164 0.0025996328
0.6761499 -0.020359678 0.0025747621
0.67613912 -0.018873183 0.0025498911
0.67612833 -0.01738669 0.0025250204
0.67611748 -0.015900204 0.0025001497
0.67610669 -0.01441371 0.0024752787
0.6760959 -0.012927224 0.0024504079
0.67470872 -0.011787089 0.0009816942
0.67469794 -0.010296609 0.0009567567
0.67468709 -0.0088061308 0.00093181914
0.67467624 -0.0073156515 0.00090688153
0.6760419 -0.0054947701 0.0023260538
0.67603111 -0.0040082838 0.0023011831
0.67602032 -0.0025217975 0.0022763121
0.67669785 -0.00087609084 0.0029736389
0.67668706 0.00060839904 0.0029488017
0.67667627 0.0020928963 0.0029239643
0.67804211 0.0038838463 0.0043436363
0.67803138 0.0053643505 0.0043188659
0.6780206 0.0068448479 0.0042940951
0.67800987 0.0083253523 0.0042693247
0.67799908 0.0098058563 0.0042445539
0.67798835 0.011286361 0.0042197835
0.67797756 0.012766866 0.0041950126
0.67796683 0.01424737 0.0041702418
0.67795604 0.015727874 0.0041454714
0.67794532 0.017208379 0.0041207005
0.67793453 0.018688884 0.0040959297
0.6779238 0.020169389 0.0040711593
0.67791301 0.021649892 0.0040463884
0.67790228 0.023130396 0.0040216176
0.67789155 0.024610894 0.0039968472
0.67788076 0.026091399 0.0039720763
0.67855859 0.027693205 0.0046700947
0.6785478 0.029171713 0.0046453578
0.67853707 0.030650221 0.0046206205
0.67852634 0.032128729 0.0045958832
0.67851561 0.033607237 0.0045711459
0.67850488 0.035085745 0.0045464085
0.6784941 0.036564253 0.0045216712
0.67848337 0.038042761 0.0044969339
0.67847264 0.039521277 0.0044721966
0.67777318 0.040896434 0.0037243699
0.67776245 0.042376939 0.0036995993
0.67775166 0.043857448 0.0036748284
0.67774093 0.045337949 0.0036500578
0.67841893 0.046913818 0.0043485104
0.67840821 0.048392329 0.0043237731
0.67839742 0.049870837 0.0042990358
0.67976433 0.051528096 0.0057209875
0.6797536 0.053002615 0.0056963172
0.67974287 0.054477133 0.0056716464
0.67973214 0.055951651 0.0056469762
0.68109918 0.057588961 0.0070692189
0.68108845 0.05905949 0.0070446152
0.68107778 0.060530018 0.0070200115
0.67968935 0.061849725 0.0055482942
0.67967862 0.063324243 0.0055236234
0.67966789 0.064798757 0.0054989532
0.67965716 0.066273279 0.0054742824
0.67964649 0.067747794 0.0054496122
0.67963576 0.069222316 0.0054249414
0.67962503 0.070696831 0.0054002712
0.67961431 0.072171345 0.0053756004
0.67960364 0.073645867 0.0053509297
0.67959291 0.075120382 0.0053262594
0.67958218 0.076594904 0.0053015887
0.67957145 0.078069419 0.0052769184
0.67956078 0.079543941 0.0052522477
0.67955005 0.081018455 0.0052275774
0.67953932 0.082492977 0.0052029067
0.68090683 0.084058456 0.0066263517
0.68089616 0.085528985 0.0066017476
0.68088549 0.086999506 0.0065771439
0.68087476 0.088470034 0.0065525402
0.6808641 0.089940563 0.0065279366
0.68154258 0.091446593 0.0072275577
0.68153191 0.092915125 0.0072029876
0.68152124 0.094383657 0.0071784174
0.68151057 0.095852189 0.0071538468
0.6814999 0.097320721 0.0071292766
0.68080002 0.098763727 0.006380314
0.68078929 0.10023426 0.0063557103
0.68077862 0.10170478 0.0063311066
0.68076795 0.10317531 0.006306503
0.68075728 0.10464584 0.0062818988
0.68074656 0.10611636 0.0062572951
0.68073589 0.10758689 0.0062326915
0.68072522 0.10905742 0.0062080878
0.68071455 0.11052795 0.0061834841
0.68070382 0.11199848 0.0061588804
0.68069315 0.113469 0.0061342763
0.68137187 0.11494311 0.006834432
0.6813612 0.11641164 0.0068098619
0.68135053 0.11788017 0.0067852912
0.68133986 0.1193487 0.0067607211
0.68132919 0.12081724 0.0067361505
0.68131852 0.12228577 0.0067115803
0.68130785 0.1237543 0.0066870097
0.68129718 0.12522283 0.0066624396
0.68128651 0.12669137 0.0066378689
0.68127584 0.1281599 0.0066132988
0.68126518 0.12962843 0.0065887286
0.68125451 0.13109696 0.006564158
0.68124384 0.1325655 0.0065395879
0.68123317 0.13403402 0.0065150172
0.6812225 0.13550256 0.0064904471
0.68121183 0.13697109 0.0064658765
0.68120116 0.13843963 0.0064413063
0.68119049 0.13990815 0.0064167357
0.68117982 0.14137669 0.0063921656
0.68116915 0.14284521 0.0063675949
0.68115848 0.14431375 0.0063430248
0.68114781 0.14578228 0.0063184542
0.68113714 0.14725082 0.006293884
0.68112648 0.14871934 0.0062693139
0.68111581 0.15018788 0.0062447432
0.68110514 0.1516564 0.0062201731
0.68109447 0.15312494 0.0061956025
0.6810838 0.15459347 0.0061710323
0.68107313 0.15606201 0.0061464617
0.68106246 0.15753053 0.0061218916
0.68105179 0.15899907 0.0060973209
0.68104112 0.16046759 0.0060727508
0.68103045 0.16193613 0.0060481802
0.68101978 0.16340467 0.00602361
0.68100911 0.1648732 0.0059990399
0.68099844 0.16634174 0.0059744692
0.68098778 0.16781026 0.0059498991
0.68097711 0.1692788 0.0059253285
0.68027645 0.17081958 0.00517473
0.68026578 0.1722901 0.0051501263
0.68025512 0.17376062 0.0051255226
0.68024439 0.17523116 0.0051009189
0.68092376 0.17662145 0.0058024768
0.68091309 0.17808999 0.0057779062
0.68090242 0.17955852 0.005753336
0.68089175 0.18102705 0.0057287654
0.68088108 0.18249558 0.0057041952
0.68087041 0.18396412 0.0056796251
0.68085974 0.18543264 0.0056550545
0.68084908 0.18690118 0.0056304843
0.68083841 0.18836971 0.0056059137
0.68220806 0.18964188 0.0070343087
0.68219745 0.19110644 0.0070098052
0.68218678 0.19257097 0.0069853016
0.68217611 0.19403552 0.0069607981
0.6821655 0.19550005 0.0069362945
0.68077439 0.19718091 0.0054584914
0.68076372 0.19864944 0.0054339212
0.68075305 0.20011798 0.0054093506
0.68074238 0.2015865 0.0053847805
0.68073171 0.20305502 0.0053602103
0.68072104 0.20452356 0.0053356397
0.68071038 0.2059921 0.0053110695
0.68069971 0.20746063 0.0052864989
0.68068904 0.20892917 0.0052619288
0.68067837 0.21039769 0.0052373582
0.6806677 0.21186623 0.005212788
0.68065703 0.21333475 0.0051882174
0.68064636 0.21480329 0.0051636472
0.68063569 0.21627182 0.0051390766
0.68062502 0.21774036 0.0051145065
0.68061435 0.21920888 0.0050899363
0.68060368 0.22067742 0.0050653657
0.68059301 0.22214594 0.0050407955
0.68058234 0.22361448 0.0050162249
0.68057168 0.22508302 0.0049916548
0.68056101 0.22655155 0.0049670842
0.68055034 0.22802007 0.004942514
0.68053967 0.22948861 0.0049179434
0.6819101 0.23064905 0.0063482081
0.68189949 0.2321136 0.0063237045
0.68050766 0.2338942 0.0048442325
0.68049699 0.23536274 0.0048196618
0.68048632 0.23683126 0.0047950917
0.68047559 0.2382998 0.0047705211
0.68046492 0.23976834 0.0047459509
0.68045425 0.24123687 0.0047213803
0.68044358 0.2427054 0.0046968102
0.68043292 0.24417393 0.0046722395
0.6818037 0.24529448 0.006103172
0.68179309 0.24675901 0.0060786684
0.68178242 0.24822356 0.0060541648
0.68177181 0.2496881 0.0060296613
0.68176115 0.25115263 0.0060051577
0.68175054 0.25261718 0.0059806542
0.68173987 0.25408173 0.0059561501
0.68172926 0.25554627 0.0059316466
0.68171859 0.25701079 0.005907143
0.68170798 0.25847533 0.0058826394
0.68169731 0.25993988 0.0058581359
0.6816867 0.26140442 0.0058336323
0.68167603 0.26286897 0.0058091288
0.68166536 0.26433352 0.0057846252
0.68165475 0.26579806 0.0057601216
0.68164408 0.26726261 0.0057356181
0.68163347 0.26872715 0.0057111145
0.6816228 0.27019167 0.0056866105
0.68161219 0.27165622 0.0056621069
0.68160152 0.27312076 0.0056376033
0.68159091 0.27458531 0.0056130998
0.68158025 0.27604985 0.0055885962
0.68156964 0.27751437 0.0055640927
0.68155897 0.27897891 0.0055395891
0.68154836 0.28044346 0.0055150855
0.68153769 0.28190801 0.005490582
0.68221813 0.28314665 0.0061946758
0.68220752 0.2846092 0.0061702053
0.68219692 0.28607175 0.0061457353
0.68218625 0.2875343 0.0061212652
0.68355793 0.28852913 0.0075543001
0.68354738 0.28998771 0.0075298967
0.68353677 0.29144624 0.0075054932
0.68214375 0.29338449 0.0060233842
0.68213314 0.29484704 0.0059989141
0.68212253 0.29630956 0.0059744436
0.68211186 0.29777211 0.0059499736
0.68210125 0.29923469 0.0059255031
0.68209064 0.30069721 0.0059010331
0.68138874 0.30241159 0.0051475316
0.68137807 0.30387613 0.0051230276
0.68136746 0.30534068 0.005098524
0.68135679 0.30680522 0.0050740205
0.68134618 0.30826977 0.0050495169
0.68202686 0.3094725 0.0057542115
0.68201625 0.31093505 0.0057297414
0.68200564 0.3123976 0.0057052714
0.68199497 0.31386012 0.0056808009
0.68198436 0.31532267 0.0056563308
0.68197376 0.31678522 0.0056318608
0.68196309 0.3182478 0.0056073903
0.68195248 0.31971031 0.0055829203
0.68194187 0.32117286 0.0055584498
0.68193126 0.32263541 0.0055339797
0.68192059 0.32409796 0.0055095097
0.68190998 0.32556051 0.0054850392
0.68189937 0.32702306 0.0054605692
0.68119723 0.32877335 0.0047064666
0.68118656 0.3302379 0.004681963
0.68117589 0.33170244 0.0046574594
0.68116528 0.33316696 0.0046329559
0.68115461 0.3346315 0.0046084523
0.681144 0.33609605 0.0045839488
0.68182498 0.33726087 0.0052892775
0.68181431 0.33872342 0.0052648075
0.6818037 0.34018597 0.005240337
0.68179309 0.34164852 0.005215867
0.68178248 0.34311107 0.0051913969
0.68177181 0.34457362 0.0051669264
0.68176121 0.34603614 0.0051424564
0.6817506 0.34749869 0.0051179864
0.68173999 0.34896126 0.0050935159
0.68172932 0.35042378 0.0050690458
0.68310225 0.35124704 0.006504952
0.6830917 0.3527056 0.0064805485
0.68308109 0.35416415 0.0064561451
0.68307048 0.35562268 0.0064317416
0.68305987 0.35708126 0.0064073377
0.68304926 0.35853982 0.0063829347
0.68303871 0.35999838 0.0063585313
0.6830281 0.36145693 0.0063341279
0.68370938 0.36257985 0.0070401588
0.68369877 0.36403641 0.0070157889
0.68368822 0.36549297 0.006991419
0.68367761 0.36694956 0.0069670486
0.68297511 0.36874968 0.0062121111
0.6829645 0.37020823 0.0061877077
0.68295389 0.37166682 0.0061633037
0.67501622 -0.098822579 -5.6361361e-05
0.67637724 -0.096754253 0.0013614603
0.67636645 -0.095263772 0.0013365227
0.6763556 -0.093773291 0.0013115852
0.67634475 -0.092282809 0.0012866476
0.67633396 -0.090792336 0.0012617101
0.67632312 -0.089301854 0.0012367725
0.67631227 -0.087811373 0.001211835
0.67630148 -0.086320892 0.0011868974
0.67629063 -0.084830403 0.0011619595
0.67627978 -0.083339922 0.0011370219
0.67626894 -0.081849441 0.0011120844
0.67625815 -0.080358967 0.0010871468
0.6762473 -0.078868486 0.0010622093
0.67623645 -0.077378005 0.0010372717
0.67622566 -0.075887524 0.0010123341
0.67621481 -0.07439705 0.00098739658
0.67620397 -0.072906569 0.00096245902
0.67619318 -0.071416087 0.00093752146
0.67618233 -0.069925614 0.00091258384
0.67617148 -0.068435133 0.00088764628
0.67616069 -0.066944651 0.00086270872
0.67614985 -0.065454155 0.00083777093
0.676139 -0.063963681 0.00081283331
0.67612821 -0.0624732 0.00078789575
0.67611736 -0.060982719 0.0007629582
0.67610651 -0.059492242 0.00073802064
0.67609572 -0.05800176 0.00071308308
0.67608488 -0.056511283 0.00068814552
0.67607403 -0.055020805 0.00066320796
0.67606324 -0.053530324 0.00063827034
0.67605239 -0.052039847 0.00061333278
0.67604154 -0.050549366 0.00058839523
0.6760307 -0.049058888 0.00056345767
0.67739272 -0.047126256 0.0019835485
0.67738193 -0.045639753 0.0019586773
0.67737114 -0.044153266 0.0019338067
0.67736036 -0.042666782 0.0019089358
0.67734957 -0.041180294 0.0018840651
0.67733872 -0.03969381 0.0018591944
0.67732793 -0.038207307 0.0018343234
0.67731714 -0.03672082 0.0018094525
0.67730635 -0.035234336 0.0017845818
0.67729557 -0.033747848 0.0017597111
0.67728472 -0.032261346 0.0017348401
0.67727393 -0.030774862 0.0017099692
0.67726314 -0.029288374 0.0016850985
0.67725235 -0.027801888 0.0016602278
0.67724156 -0.026315387 0.0016353568
0.67791742 -0.024637755 0.002333544
0.67790663 -0.023153264 0.0023087065
0.67789584 -0.021668775 0.0022838693
0.67788506 -0.020184269 0.0022590316
0.67787427 -0.01869978 0.0022341942
0.67786348 -0.017215284 0.0022093568
0.67785269 -0.015730793 0.0021845193
0.6778419 -0.014246295 0.0021596819
0.67783111 -0.012761799 0.0021348444
0.67713356 -0.011450495 0.0013866486
0.67712271 -0.0099640079 0.0013617779
0.67711192 -0.0084775146 0.0013369069
0.67710114 -0.0069910283 0.0013120362
0.67777723 -0.0053393268 0.0020106572
0.67776644 -0.0038548368 0.00198582
0.67912936 -0.0020478966 0.003408015
0.67911857 -0.00056739227 0.0033832444
0.67910784 0.00091311219 0.0033584735
0.67909706 0.0023936166 0.0033337029
0.67908633 0.0038741212 0.0033089323
0.6790756 0.0053546256 0.0032841617
0.67906481 0.0068351226 0.0032593911
0.67905408 0.0083156275 0.0032346204
0.67904329 0.0097961314 0.0032098496
0.67903256 0.011276636 0.003185079
0.67902178 0.01275714 0.0031603083
0.67969805 0.014376913 0.0038594212
0.67968732 0.01585542 0.0038346839
0.67967659 0.017333928 0.0038099466
0.6796658 0.018812437 0.0037852093
0.67965508 0.020290945 0.0037604722
0.67964435 0.02176946 0.0037357346
0.67963362 0.023247968 0.0037109975
0.67962283 0.024726477 0.0036862602
0.6796121 0.026204985 0.0036615229
0.67960137 0.027683493 0.0036367856
0.67959064 0.029162001 0.0036120482
0.67957991 0.030640509 0.0035873111
0.67956913 0.032119017 0.0035625738
0.6795584 0.033597525 0.0035378365
0.67954767 0.035076033 0.0035130992
0.67953694 0.036554541 0.0034883618
0.67952615 0.03803305 0.0034636247
0.67951542 0.039511565 0.0034388872
0.67950469 0.040990073 0.0034141499
0.67949396 0.042468581 0.0033894128
0.67948318 0.043947089 0.0033646754
0.67947245 0.045425598 0.0033399381
0.68083644 0.047094855 0.0047644777
0.68082571 0.048569374 0.0047398075
0.68218976 0.050226666 0.0061645061
0.68217903 0.051697195 0.0061399024
0.68216836 0.053167719 0.0061152987
0.6821577 0.054638248 0.006090695
0.68214703 0.056108776 0.0060660914
0.68282378 0.057660706 0.0067663379
0.68281311 0.059129242 0.0067417673
0.68280244 0.060597774 0.0067171971
0.68279177 0.062066305 0.0066926265
0.6827811 0.063534841 0.0066680564
0.68208289 0.064931937 0.0059184688
0.68207222 0.066402465 0.0058938651
0.68206155 0.067872994 0.005869261
0.68205082 0.069343522 0.0058446573
0.68204015 0.070814051 0.0058200536
0.68202949 0.072284572 0.0057954499
0.68201882 0.0737551 0.0057708463
0.68200809 0.075225629 0.0057462426
0.68199742 0.076696157 0.0057216389
0.68198675 0.078166686 0.0056970348
0.68197608 0.079637215 0.0056724311
0.68265307 0.081157222 0.0063732117
0.6826424 0.082625754 0.0063486416
0.68263173 0.084094286 0.006324071
0.68262106 0.085562818 0.0062995008
0.68261039 0.08703135 0.0062749307
0.68397522 0.088578902 0.0077015078
0.68396461 0.09004344 0.0076770042
0.68395394 0.091507986 0.0076525006
0.68394333 0.092972524 0.0076279971
0.68393266 0.09443707 0.0076034935
0.68392199 0.095901608 0.00757899
0.68253571 0.09731108 0.0061029377
0.68252504 0.098779611 0.0060783676
0.68251431 0.10024814 0.006053797
0.68250364 0.10171667 0.0060292268
0.68249297 0.10318521 0.0060046562
0.6824823 0.10465374 0.005980086
0.68247163 0.10612227 0.0059555159
0.68246096 0.1075908 0.0059309453
0.68245029 0.10905933 0.0059063751
0.68243963 0.11052787 0.0058818045
0.68242896 0.1119964 0.0058572344
0.68241829 0.11346493 0.0058326637
0.68240762 0.11493346 0.0058080936
0.68239695 0.11640199 0.005783523
0.68238628 0.11787052 0.0057589528
0.68237561 0.11933906 0.0057343822
0.68236494 0.12080759 0.005709812
0.68373048 0.12226336 0.0071379249
0.68371987 0.1237279 0.0071134213
0.6837092 0.12519243 0.0070889178
0.68369859 0.12665698 0.0070644142
0.68368793 0.12812153 0.0070399106
0.68367726 0.12958607 0.0070154071
0.68366665 0.1310506 0.0069909035
0.68365598 0.13251515 0.0069664
0.68364537 0.13397969 0.0069418964
0.68225825 0.13549291 0.0054641082
0.68224758 0.13696145 0.005439538
0.68223691 0.13842997 0.0054149674
0.68222624 0.13989851 0.0053903973
0.68221557 0.14136703 0.0053658267
0.68358153 0.14276694 0.0067948746
0.68357086 0.14423148 0.006770371
0.68356025 0.14569603 0.0067458674
0.68354958 0.14716056 0.0067213639
0.68353897 0.14862511 0.0066968603
0.6835283 0.15008965 0.0066723567
0.68351769 0.15155418 0.0066478532
0.68350703 0.15301873 0.0066233496
0.68349642 0.15448327 0.0065988461
0.68348575 0.15594782 0.006574342
0.68347514 0.15741235 0.0065498385
0.68346447 0.1588769 0.0065253349
0.68345386 0.16034144 0.0065008313
0.68344319 0.16180597 0.0064763278
0.68205553 0.16339502 0.0049972716
0.68204486 0.16486356 0.004972701
0.68203419 0.16633208 0.0049481308
0.68202353 0.16780062 0.0049235602
0.68201286 0.16926914 0.00489899
0.68200219 0.17073768 0.0048744194
0.68199152 0.17220621 0.0048498493
0.68198085 0.17367475 0.0048252787
0.68197018 0.17514329 0.0048007085
0.68195951 0.17661181 0.0047761383
0.68194884 0.17808034 0.0047515677
0.68193817 0.17954887 0.0047269976
0.68330485 0.18084502 0.006157781
0.68329424 0.18230957 0.0061332774
0.68328357 0.1837741 0.0061087739
0.68327296 0.18523864 0.0060842703
0.68326229 0.18670318 0.0060597667
0.68325168 0.18816772 0.0060352632
0.68324101 0.18963227 0.0060107596
0.6832304 0.19109681 0.0059862556
0.68321973 0.19256136 0.005961752
0.68320912 0.19402589 0.0059372485
0.68319845 0.19549043 0.0059127449
0.68318778 0.19695498 0.0058882413
0.68317717 0.19841951 0.0058637378
0.6831665 0.19988406 0.0058392342
0.68315589 0.2013486 0.0058147307
0.68314523 0.20281315 0.0057902271
0.68313462 0.20427768 0.0057657235
0.68312395 0.20574223 0.00574122
0.68311334 0.20720677 0.0057167164
0.68310267 0.2086713 0.0056922128
0.68309206 0.21013585 0.0056677093
0.68308139 0.21160039 0.0056432053
0.68307078 0.21306494 0.0056187017
0.68168211 0.21479364 0.0041373083
0.68167144 0.21626218 0.0041127382
0.68303883 0.21745856 0.005545191
0.68302822 0.21892309 0.0055206874
0.68301755 0.22038764 0.0054961839
0.68300694 0.22185218 0.0054716803
0.68299627 0.22331673 0.0054471768
0.68298566 0.22478126 0.0054226732
0.68297499 0.22624581 0.0053981696
0.68296438 0.22771035 0.0053736656
0.68295372 0.22917488 0.005349162
0.68294305 0.23063943 0.0053246585
0.68293244 0.23210397 0.0053001549
0.68292177 0.23356852 0.0052756513
0.68291116 0.23503305 0.0052511478
0.68290049 0.2364976 0.0052266442
0.68288988 0.23796214 0.0052021407
0.68287921 0.23942669 0.0051776366
0.6828686 0.24089123 0.0051531331
0.68285793 0.24235578 0.0051286295
0.68284732 0.24382031 0.0051041259
0.68283665 0.24528486 0.0050796224
0.68282604 0.2467494 0.0050551188
0.6835047 0.24803595 0.0057598068
0.68349409 0.2494985 0.0057353368
0.68348348 0.25096104 0.0057108668
0.68347281 0.25242358 0.0056863963
0.6834622 0.25388613 0.0056619262
0.68345159 0.25534868 0.0056374562
0.68344092 0.25681123 0.0056129857
0.68343031 0.25827378 0.0055885152
0.6834197 0.25973633 0.0055640452
0.68340909 0.26119888 0.0055395751
0.68339843 0.2626614 0.0055151046
0.68338782 0.26412395 0.0054906346
0.68337721 0.2655865 0.0054661646
0.68474561 0.26664123 0.0069009871
0.68473506 0.26809978 0.0068765841
0.68472445 0.26955834 0.0068521807
0.68471384 0.2710169 0.0068277768
0.68470323 0.27247545 0.0068033738
0.68469262 0.27393401 0.0067789704
0.68468207 0.27539256 0.0067545664
0.68467146 0.27685112 0.006730163
0.68328154 0.27874944 0.0052459324
0.68327093 0.28021196 0.0052214623
0.68326032 0.2816745 0.0051969918
0.68462908 0.28268534 0.0066325497
0.68461847 0.28414389 0.0066081462
0.68460786 0.28560245 0.0065837423
0.68459725 0.28706101 0.0065593389
0.6845867 0.28851956 0.0065349359
0.68457609 0.28997812 0.006510532
0.68456548 0.29143667 0.0064861286
0.68455487 0.29289523 0.0064617251
0.68454427 0.29435378 0.0064373217
0.68453372 0.29581234 0.0064129182
0.68452311 0.29727089 0.0063885148
0.6845125 0.29872945 0.0063641118
0.68450189 0.300188 0.0063397079
0.68311155 0.30215016 0.004854409
0.68310094 0.30361271 0.004829939
0.68309027 0.30507526 0.0048054685
0.68307966 0.30653778 0.0047809985
0.68306905 0.30800036 0.004756528
0.68443829 0.30893934 0.0061932877
0.68442774 0.31039789 0.0061688838
0.68441713 0.31185645 0.0061444803
0.68440652 0.313315 0.0061200769
0.68439591 0.31477356 0.0060956734
0.6843853 0.31623212 0.00607127
0.68437475 0.31769067 0.0060468665
0.68436414 0.31914923 0.0060224631
0.68435353 0.32060778 0.0059980596
0.68434292 0.32206634 0.0059736562
0.68433237 0.32352489 0.0059492528
0.68432176 0.32498345 0.0059248493
0.68431115 0.326442 0.0059004459
0.68430054 0.32790056 0.0058760424
0.68428993 0.32935911 0.005851639
0.68427938 0.33081767 0.0058272355
0.68426877 0.33227623 0.0058028321
0.68425816 0.33373478 0.0057784286
0.68424755 0.33519334 0.0057540252
0.68423694 0.33665189 0.0057296217
0.68422639 0.33811045 0.0057052183
0.68421578 0.339569 0.0056808149
0.68420517 0.34102756 0.0056564114
0.68488485 0.34217843 0.0063633695
0.68487424 0.34363499 0.0063389996
0.68486369 0.34509155 0.0063146292
0.68485308 0.34654811 0.0062902593
0.68484253 0.34800467 0.0062658894
0.68483192 0.34946123 0.0062415195
0.68482137 0.35091779 0.0062171491
0.68481076 0.35237437 0.0061927792
0.68480021 0.35383093 0.0061684093
0.6847896 0.35528749 0.0061440389
0.68477899 0.35674405 0.0061196689
0.68476844 0.35820061 0.006095299
0.68475783 0.35965717 0.0060709291
0.68474728 0.3611137 0.0060465592
0.68473667 0.36257029 0.0060221883
0.68472612 0.36402684 0.0059978184
0.68471551 0.3654834 0.0059734485
0.68470496 0.36693999 0.0059490781
0.68469435 0.36839655 0.0059247082
0.6846838 0.36985311 0.0059003383
0.68398261 0.37165722 0.0051439391
0.67745018 -0.099744998 0.00036965852
0.67743933 -0.098254517 0.00034472096
0.67742848 -0.096764043 0.00031978337
0.6774177 -0.095273562 0.00029484581
0.67740685 -0.093783081 0.00026990825
0.67876518 -0.091730714 0.0016907847
0.67875439 -0.090244211 0.0016659136
0.6787436 -0.088757724 0.0016410429
0.67873275 -0.087271236 0.0016161721
0.67872196 -0.085784748 0.0015913014
0.67871118 -0.084298253 0.0015664303
0.67870039 -0.082811765 0.0015415596
0.6786896 -0.081325278 0.0015166888
0.67867875 -0.07983879 0.0014918181
0.67866796 -0.078352287 0.001466947
0.67865717 -0.076865807 0.0014420763
0.67864639 -0.075379319 0.0014172056
0.6786356 -0.073892832 0.0013923347
0.67862475 -0.072406344 0.001367464
0.67861396 -0.070919842 0.001342593
0.67860317 -0.069433361 0.0013177223
0.67722273 -0.068444923 -0.00015403065
0.67721194 -0.066954441 -0.00017896823
0.67720109 -0.065463945 -0.00020390605
0.67719024 -0.063973472 -0.00022884361
0.67717946 -0.06248299 -0.00025378118
0.67716861 -0.060992513 -0.00027871874
0.67715776 -0.059502032 -0.00030365633
0.67714697 -0.058011554 -0.00032859389
0.67713612 -0.056521073 -0.00035353145
0.67849517 -0.054568466 0.0010690141
0.67848438 -0.053081978 0.0010441433
0.67847359 -0.051595479 0.0010192724
0.67846274 -0.050108992 0.00099440152
0.67845196 -0.048622504 0.00096953078
0.67844117 -0.04713602 0.00094466005
0.67843038 -0.045649517 0.00091978902
0.67910469 -0.043945935 0.0016189371
0.6790939 -0.042461429 0.0015940996
0.67908311 -0.040976938 0.0015692621
0.67907232 -0.039492451 0.0015444248
0.67906153 -0.038007945 0.0015195872
0.67905074 -0.036523454 0.0014947498
0.67903996 -0.035038963 0.0014699125
0.67902917 -0.033554461 0.0014450749
0.67901838 -0.03206997 0.0014202375
0.67900759 -0.030585481 0.0013954001
0.6789968 -0.02910099 0.0013705628
0.67898601 -0.027616486 0.0013457251
0.68034565 -0.025745686 0.0027696409
0.68033493 -0.024265174 0.00274487
0.68032414 -0.022784676 0.0027200994
0.68031341 -0.021304164 0.0026953286
0.68030262 -0.019823669 0.0026705582
0.68029189 -0.018343164 0.0026457873
0.6802811 -0.016862659 0.0026210167
0.68027037 -0.015382155 0.0025962461
0.68025964 -0.01390165 0.0025714755
0.68024886 -0.012421146 0.0025467046
0.68023813 -0.010940649 0.0025219342
0.68022734 -0.0094601437 0.0024971634
0.67884582 -0.0083180722 0.0010228388
0.67883503 -0.0068335752 0.00099800131
0.68019509 -0.005018631 0.0024228515
0.6801843 -0.0035381264 0.0023980807
0.68017358 -0.002057622 0.00237331
0.68016279 -0.00057711743 0.0023485394
0.68015206 0.00090338703 0.0023237688
0.68082678 0.0025391367 0.0030240095
0.68081605 0.0040176446 0.0029992722
0.68080533 0.0054961527 0.0029745349
0.68079454 0.0069746608 0.0029497975
0.68078381 0.0084531689 0.0029250602
0.68077308 0.009931677 0.0029003231
0.68076235 0.011410185 0.0028755858
0.68075156 0.012888693 0.0028508485
0.68074083 0.014367201 0.0028261112
0.6807301 0.015845709 0.0028013738
0.68071938 0.017324217 0.0027766367
0.68070865 0.018802725 0.0027518994
0.68069786 0.020281233 0.0027271621
0.68068713 0.021759748 0.0027024248
0.6806764 0.023238257 0.0026776874
0.68066567 0.024716765 0.0026529501
0.68065488 0.026195273 0.0026282128
0.68201572 0.027916439 0.0040546744
0.68200499 0.029390953 0.0040300041
0.68199426 0.030865476 0.0040053334
0.68198353 0.03233999 0.0039806627
0.68197286 0.033814508 0.0039559924
0.68196213 0.035289031 0.0039313217
0.6819514 0.036763545 0.0039066514
0.68194067 0.03823806 0.0038819809
0.68193001 0.039712582 0.0038573102
0.68191928 0.041187096 0.0038326399
0.68190855 0.042661615 0.0038079692
0.68189782 0.044136137 0.0037832987
0.68325895 0.045805424 0.0052105859
0.68324828 0.047275953 0.0051859822
0.68323761 0.048746478 0.0051613785
0.68391287 0.050308403 0.0058628516
0.6839022 0.051776934 0.0058382815
0.68389153 0.053245466 0.0058137109
0.68388087 0.054713998 0.0057891407
0.6838702 0.05618253 0.0057645701
0.68385953 0.057651062 0.0057399999
0.68384886 0.059119593 0.0057154293
0.68383819 0.060588129 0.0056908592
0.68382752 0.062056657 0.0056662885
0.68381685 0.063525192 0.0056417184
0.68380618 0.064993724 0.0056171478
0.68379551 0.066462256 0.0055925776
0.68378484 0.067930788 0.0055680075
0.68377417 0.06939932 0.0055434369
0.6837635 0.070867851 0.0055188667
0.68375283 0.072336383 0.0054942961
0.68374217 0.073804915 0.0054697259
0.6837315 0.075273447 0.0054451553
0.68372083 0.076741979 0.0054205852
0.68371016 0.07821051 0.0053960145
0.68369949 0.079679042 0.0053714444
0.68368882 0.081147581 0.0053468738
0.68367815 0.082616113 0.0053223036
0.68504012 0.084175654 0.0067514707
0.68502945 0.085640199 0.0067269667
0.68501884 0.087104738 0.0067024631
0.68500817 0.088569283 0.0066779596
0.68499756 0.090033822 0.006653456
0.68498689 0.091498367 0.0066289525
0.68497628 0.092962906 0.0066044489
0.68496561 0.094427444 0.0065799453
0.68495494 0.09589199 0.0065554418
0.68494433 0.097356528 0.0065309382
0.68493366 0.098821074 0.0065064346
0.68355012 0.10023849 0.005027459
0.68353945 0.10170703 0.0050028889
0.68352878 0.10317556 0.0049783182
0.68351811 0.10464409 0.0049537481
0.68350744 0.10611262 0.0049291779
0.68349677 0.10758115 0.0049046073
0.6834861 0.10904969 0.0048800372
0.68347543 0.11051822 0.0048554665
0.68483794 0.11200195 0.0062859021
0.68482727 0.11346649 0.0062613986
0.68481666 0.11493103 0.006236895
0.68480599 0.11639557 0.0062123914
0.68479538 0.11786011 0.0061878879
0.68478471 0.11932465 0.0061633843
0.6847741 0.12078919 0.0061388807
0.68476343 0.12225374 0.0061143767
0.68475282 0.12371828 0.0060898731
0.68474215 0.12518282 0.0060653696
0.68473154 0.12664737 0.006040866
0.68472087 0.1281119 0.0060163625
0.6847102 0.12957644 0.0059918589
0.68469959 0.13104099 0.0059673553
0.68468893 0.13250552 0.0059428518
0.68467832 0.13397007 0.0059183482
0.68466765 0.13543461 0.0058938446
0.68465704 0.13689914 0.0058693411
0.68464637 0.13836369 0.0058448375
0.68463576 0.13982823 0.0058203335
0.68462509 0.14129278 0.0057958299
0.68461448 0.14275731 0.0057713264
0.68460381 0.14422186 0.0057468228
0.6845932 0.1456864 0.0057223192
0.68458253 0.14715095 0.0056978157
0.68457192 0.14861548 0.0056733121
0.68456125 0.15008003 0.0056488086
0.68455064 0.15154457 0.005624305
0.68453997 0.1530091 0.0055998014
0.68452936 0.15447365 0.0055752979
0.68451869 0.15593819 0.0055507943
0.68450809 0.15740274 0.0055262907
0.68449742 0.15886727 0.0055017867
0.68448681 0.16033182 0.0054772831
0.68447614 0.16179636 0.0054527796
0.68446547 0.16326089 0.005428276
0.68445486 0.16472544 0.0054037725
0.68444419 0.16618998 0.0053792689
0.68443358 0.16765451 0.0053547653
0.68442291 0.16911907 0.0053302618
0.6844123 0.17058361 0.0053057582
0.68440163 0.17204815 0.0052812546
0.68439102 0.1735127 0.0052567511
0.68438035 0.17497723 0.0052322475
0.68436974 0.17644177 0.005207744
0.68435907 0.1779063 0.0051832404
0.68434846 0.17937087 0.0051587364
0.68433779 0.1808354 0.0051342328
0.68432719 0.18229994 0.0051097292
0.68500382 0.18367431 0.0058143418
0.68499321 0.18513685 0.0057898718
0.68498254 0.18659939 0.0057654018
0.68497193 0.18806194 0.0057409313
0.68496132 0.18952449 0.0057164612
0.68495065 0.19098704 0.0056919912
0.68494004 0.19244958 0.0056675207
0.68492943 0.19391213 0.0056430507
0.68491882 0.19537468 0.0056185802
0.68422073 0.19694535 0.0048646932
0.68421012 0.1984099 0.0048401896
0.68419945 0.19987443 0.004815686
0.68487626 0.20122486 0.0055206995
0.68486565 0.2026874 0.005496229
0.68416756 0.20426807 0.0047421753
0.68415689 0.2057326 0.0047176718
0.68414629 0.20719714 0.0046931682
0.68413562 0.20866169 0.0046686647
0.68412501 0.21012622 0.0046441611
0.68411434 0.21159077 0.0046196575
0.68410373 0.21305531 0.0045951535
0.68409306 0.21451986 0.0045706499
0.68408245 0.21598439 0.0045461464
0.68407178 0.21744893 0.0045216428
0.68406117 0.21891348 0.0044971392
0.68473816 0.22023796 0.0052025868
0.68472755 0.2217005 0.0051781163
0.68471688 0.22316305 0.0051536462
0.68470627 0.2246256 0.0051291757
0.68469566 0.22608815 0.0051047057
0.68468499 0.22755069 0.0050802357
0.68467438 0.22901323 0.0050557656
0.68466377 0.23047578 0.0050312951
0.68465316 0.23193833 0.0050068251
0.68464249 0.23340088 0.0049823546
0.68463188 0.23486342 0.0049578846
0.68393344 0.23648797 0.004203096
0.68392283 0.23795252 0.0041785925
0.6846 0.23925106 0.004884474
0.68458939 0.24071361 0.0048600035
0.68457878 0.24217616 0.0048355334
0.68456811 0.24363869 0.0048110634
0.6845575 0.24510124 0.0047865929
0.68592274 0.24621187 0.0062232697
0.68591213 0.24767041 0.0061988663
0.68590152 0.24912897 0.0061744628
0.68589091 0.25058752 0.0061500594
0.68588036 0.25204608 0.006125656
0.68586975 0.25350463 0.0061012525
0.68585914 0.25496322 0.0060768491
0.68584853 0.25642174 0.0060524456
0.68583792 0.2578803 0.0060280422
0.68582737 0.25933886 0.0060036387
0.68581676 0.26079741 0.0059792353
0.68580616 0.26225597 0.0059548318
0.68579555 0.26371452 0.0059304284
0.68578494 0.26517311 0.0059060249
0.68646246 0.26642773 0.0066126417
0.68645191 0.26788428 0.0065882718
0.6864413 0.26934084 0.0065639019
0.68643069 0.2707974 0.006539532
0.68642014 0.27225396 0.0065151616
0.68640953 0.27371052 0.0064907917
0.68639898 0.27516711 0.0064664218
0.68638837 0.27662364 0.0064420518
0.68637782 0.27808022 0.0064176815
0.68567896 0.27975866 0.0056619905
0.68635666 0.28099331 0.0063689416
0.68634605 0.2824499 0.0063445712
0.68633544 0.28390646 0.0063202013
0.68632489 0.28536302 0.0062958314
0.68631428 0.28681958 0.006271461
0.68630373 0.28827614 0.0062470911
0.68629313 0.28973269 0.0062227207
0.68628258 0.29118925 0.0061983508
0.68627197 0.29264581 0.0061739809
0.68626142 0.29410237 0.0061496105
0.68625081 0.29555893 0.0061252406
0.68624026 0.29701549 0.0061008707
0.68622965 0.29847205 0.0060765008
0.68621904 0.29992861 0.0060521304
0.68620849 0.30138516 0.0060277604
0.68619788 0.30284175 0.0060033905
0.68618733 0.30429828 0.0059790206
0.68617672 0.30575487 0.0059546502
0.68616617 0.30721143 0.0059302803
0.68615556 0.30866799 0.0059059104
0.68614501 0.31012455 0.00588154
0.6861344 0.3115811 0.0058571701
0.68612379 0.31303766 0.0058328002
0.68611324 0.31449422 0.0058084298
0.68610263 0.31595078 0.0057840599
0.68609208 0.31740734 0.0057596895
0.68608147 0.3188639 0.0057353196
0.68607092 0.32032046 0.0057109497
0.68606031 0.32177702 0.0056865797
0.68604976 0.32323357 0.0056622094
0.68603915 0.32469013 0.0056378394
0.6860286 0.32614669 0.0056134695
0.68601799 0.32760325 0.0055890996
0.68600738 0.32905984 0.0055647292
0.68599683 0.3305164 0.0055403593
0.68598622 0.33197293 0.0055159894
0.68597567 0.33342952 0.005491619
0.68596506 0.33488607 0.0054672491
0.68595451 0.33634263 0.0054428792
0.6859439 0.33779919 0.0054185088
0.68593335 0.33925575 0.0053941389
0.68592274 0.34071231 0.0053697685
0.68591219 0.34216887 0.0053453986
0.68590158 0.34362543 0.0053210286
0.68589097 0.34508198 0.0052966583
0.68588042 0.34653854 0.0052722883
0.68586981 0.3479951 0.0052479184
0.68723708 0.34881639 0.0066893934
0.68722653 0.35026896 0.0066650901
0.68721598 0.35172155 0.0066407868
0.68720543 0.35317412 0.0066164839
0.68719488 0.35462669 0.0065921801
0.68580633 0.35673448 0.005101698
0.68579572 0.35819104 0.0050773281
0.68716323 0.35898441 0.0065192701
0.68715268 0.36043698 0.0064949673
0.68714213 0.36188954 0.0064706639
0.68713158 0.36334211 0.0064463601
0.68712103 0.36479467 0.0064220573
0.68711048 0.36624724 0.006397754
0.68709993 0.3676998 0.0063734506
0.68708938 0.36915237 0.0063491478
0.68570054 0.37130007 0.0048579974
0.67986763 -0.09917292 0.0007762516
0.67985684 -0.097686425 0.00075138063
0.68052918 -0.095912978 0.0014507538
0.68051839 -0.094428487 0.0014259164
0.6805076 -0.092943996 0.001401079
0.68049681 -0.091459498 0.0013762414
0.68048602 -0.089975007 0.0013514041
0.68184167 -0.087936565 0.002775304
0.68046445 -0.08700601 0.0013017291
0.68182015 -0.084975563 0.0027257625
0.68180937 -0.083495066 0.0027009919
0.68179864 -0.082014553 0.0026762213
0.68178785 -0.080534056 0.0026514507
0.68177712 -0.079053544 0.0026266798
0.68176639 -0.077573046 0.0026019092
0.6817556 -0.076092534 0.0025771386
0.68174487 -0.074612036 0.002552368
0.68173409 -0.073131539 0.0025275974
0.68035662 -0.072161064 0.0010533548
0.68034583 -0.07067658 0.0010285174
0.68033504 -0.069192089 0.0010036801
0.68032426 -0.067707583 0.00097884238
0.68031347 -0.066223092 0.00095400505
0.68030268 -0.064738601 0.00092916773
0.68029189 -0.063254111 0.00090433034
0.6802811 -0.061769608 0.00087949273
0.68027031 -0.060285117 0.0008546554
0.68025953 -0.058800627 0.00082981802
0.68024874 -0.057316124 0.0008049804
0.68023795 -0.055831634 0.00078014308
0.68159425 -0.053884987 0.0022055786
0.68158352 -0.052404478 0.0021808078
0.68157274 -0.050923981 0.0021560374
0.68156201 -0.049443468 0.0021312665
0.68155122 -0.047962971 0.0021064959
0.68154049 -0.046482459 0.002081725
0.6815297 -0.045001961 0.0020569547
0.68151897 -0.043521449 0.0020321838
0.68150818 -0.042040952 0.0020074132
0.68149745 -0.040560439 0.0019826423
0.68148667 -0.039079942 0.001957872
0.68147594 -0.037599448 0.0019331013
0.68146515 -0.036118936 0.0019083305
0.68145442 -0.034638438 0.00188356
0.68144363 -0.033157926 0.0018587891
0.6814329 -0.031677429 0.0018340186
0.6821059 -0.02999776 0.0025349197
0.68209517 -0.028519245 0.0025101823
0.68208444 -0.027040744 0.002485445
0.68207371 -0.025562244 0.0024607079
0.68206292 -0.024083728 0.0024359706
0.6820522 -0.022605227 0.0024112335
0.68204147 -0.021126712 0.0023864959
0.68203074 -0.019648204 0.0023617586
0.68201995 -0.018169696 0.0023370215
0.68200922 -0.016691187 0.0023122842
0.68199849 -0.015212679 0.0022875469
0.68198776 -0.013734171 0.0022628095
0.68197703 -0.012255663 0.0022380725
0.68196625 -0.010777155 0.0022133351
0.68195552 -0.0092986468 0.0021885978
0.68194479 -0.0078201387 0.0021638605
0.68193406 -0.0063416311 0.0021391232
0.68192327 -0.0048631229 0.0021143861
0.68191254 -0.0033846148 0.0020896487
0.68190181 -0.0019061068 0.0020649114
0.68325925 -0.00010908801 0.0034928927
0.68324852 0.0013654272 0.0034682222
0.68323779 0.0028399499 0.0034435517
0.68322706 0.004314465 0.0034188812
0.68321639 0.0057889801 0.0033942107
0.68320566 0.007263503 0.0033695402
0.68319494 0.0087380176 0.0033448697
0.68318427 0.010212533 0.0033201992
0.68317354 0.011687056 0.0032955287
0.68316281 0.013161571 0.0032708582
0.68452048 0.01491469 0.0046995329
0.68450981 0.01638522 0.0046749292
0.68449914 0.017855743 0.0046503255
0.68448848 0.019326271 0.0046257218
0.68447775 0.020796802 0.0046011182
0.68446708 0.022267325 0.0045765145
0.68445641 0.023737853 0.0045519103
0.68444574 0.025208384 0.0045273066
0.68443501 0.026678907 0.004502703
0.68442434 0.028149435 0.0044780993
0.68441367 0.029619966 0.0044534956
0.684403 0.031090489 0.0044288919
0.68439227 0.032561019 0.0044042883
0.68506598 0.034144904 0.0051067891
0.68505532 0.035613436 0.0050822189
0.68504465 0.037081964 0.0050576483
0.68503398 0.038550496 0.0050330781
0.68502331 0.040019028 0.0050085075
0.68501264 0.041487563 0.0049839374
0.68500197 0.042956095 0.0049593667
0.68636036 0.044623416 0.0063895183
0.68634969 0.046087954 0.0063650147
0.68633908 0.0475525 0.0063405111
0.68632841 0.049017038 0.0063160076
0.6863178 0.05048158 0.006291504
0.68630713 0.051946126 0.0062670005
0.68629652 0.053410664 0.0062424969
0.68628585 0.054875206 0.0062179933
0.68627524 0.056339744 0.0061934893
0.68626457 0.05780429 0.0061689857
0.68625396 0.059268832 0.0061444822
0.6862433 0.06073337 0.0061199786
0.68623263 0.062197912 0.0060954751
0.68622202 0.063662454 0.0060709715
0.68621135 0.065127 0.0060464679
0.68620074 0.066591538 0.0060219644
0.68619007 0.068056084 0.0059974608
0.68617946 0.069520622 0.0059729572
0.68616879 0.070985161 0.0059484537
0.68615818 0.072449706 0.0059239501
0.68614751 0.073914245 0.0058994466
0.6861369 0.07537879 0.0058749425
0.68612623 0.076843329 0.005850439
0.68611562 0.078307867 0.0058259354
0.68610495 0.079772413 0.0058014318
0.6867792 0.081286468 0.0065051029
0.68676853 0.082749009 0.0064806323
0.68675792 0.084211558 0.0064561623
0.68674731 0.0856741 0.0064316918
0.68810654 0.087219708 0.0078638811
0.68809593 0.088678263 0.0078394776
0.68808538 0.090136819 0.0078150742
0.68807477 0.091595374 0.0077906707
0.68806416 0.09305393 0.0077662673
0.68805355 0.094512485 0.0077418638
0.68804294 0.09597104 0.0077174604
0.68803239 0.097429596 0.0076930569
0.68665165 0.098837018 0.0062114601
0.68664104 0.10029957 0.0061869901
0.68663043 0.10176211 0.0061625196
0.68661982 0.10322466 0.0061380495
0.68660915 0.10468721 0.006113579
0.68659854 0.10614975 0.006089109
0.68590277 0.1075987 0.0053358637
0.68589216 0.10906325 0.0053113601
0.68656665 0.11053739 0.0060156984
0.68655604 0.11199994 0.0059912279
0.68654543 0.11346248 0.0059667579
0.68653476 0.11492503 0.0059422879
0.68652415 0.11638758 0.0059178174
0.68651354 0.11785012 0.0058933473
0.68650287 0.11931267 0.0058688768
0.68649226 0.12077522 0.0058444068
0.68648165 0.12223776 0.0058199367
0.68784159 0.1236836 0.0072537949
0.68783104 0.12514216 0.0072293915
0.68782043 0.12660071 0.007204988
0.68780982 0.12805927 0.0071805846
0.68779922 0.12951782 0.0071561811
0.68778861 0.13097638 0.0071317777
0.68777806 0.13243493 0.0071073743
0.68776745 0.13389349 0.0070829708
0.68775684 0.13535205 0.0070585674
0.68637538 0.13686322 0.0055752345
0.68636477 0.13832577 0.005550764
0.68635416 0.13978831 0.005526294
0.68634349 0.14125086 0.005501824
0.68770385 0.14264482 0.0069365501
0.68769324 0.14410338 0.0069121467
0.68768263 0.14556193 0.0068877432
0.68767208 0.14702049 0.0068633398
0.68766147 0.14847904 0.0068389364
0.68833643 0.14989333 0.0075442763
0.68832582 0.1513499 0.0075199059
0.68831521 0.15280646 0.007495536
0.68830466 0.15426302 0.0074711661
0.68829405 0.15571958 0.0074467962
0.6882835 0.15717614 0.0074224258
0.68827289 0.1586327 0.0073980559
0.68757671 0.16014749 0.0066437088
0.6875661 0.16160604 0.0066193053
0.68755549 0.1630646 0.0065949019
0.68754488 0.16452315 0.0065704985
0.68753427 0.16598171 0.006546095
0.68752372 0.16744027 0.0065216916
0.68751311 0.16889882 0.0064972881
0.6875025 0.17035738 0.0064728847
0.68749189 0.17181593 0.0064484812
0.68748128 0.17327449 0.0064240778
0.68747073 0.17473304 0.0063996743
0.68746012 0.1761916 0.0063752709
0.68744951 0.17765017 0.0063508675
0.68743891 0.17910871 0.006326464
0.6874283 0.18056726 0.0063020606
0.68741775 0.18202582 0.0062776571
0.68740714 0.18348438 0.0062532537
0.68739653 0.18494295 0.0062288502
0.68738592 0.18640149 0.0062044468
0.68737537 0.18786006 0.0061800433
0.68736476 0.1893186 0.0061556399
0.68735415 0.19077715 0.0061312364
0.68734354 0.19223572 0.006106833
0.68733293 0.19369426 0.0060824296
0.68732238 0.19515283 0.0060580261
0.68731177 0.19661137 0.0060336227
0.68730116 0.19806994 0.0060092192
0.68729055 0.1995285 0.0059848158
0.68727994 0.20098704 0.0059604123
0.68726939 0.20244561 0.0059360089
0.68725878 0.20390415 0.0059116054
0.68724817 0.20536272 0.005887202
0.68792367 0.20669919 0.0065938435
0.68791312 0.20815575 0.0065694735
0.68790251 0.20961231 0.0065451036
0.6878919 0.21106887 0.0065207332
0.68788135 0.21252544 0.0064963633
0.68787074 0.21398199 0.0064719934
0.68786019 0.21543856 0.006447623
0.68784958 0.21689512 0.0064232531
0.68783903 0.21835168 0.0063988832
0.68782842 0.21980824 0.0063745133
0.68781787 0.22126479 0.0063501429
0.68917978 0.22243328 0.0077885995
0.68916923 0.22388585 0.0077642961
0.6877861 0.22563447 0.0062770327
0.68777549 0.22709104 0.0062526627
0.68776494 0.2285476 0.0062282928
0.68775433 0.23000416 0.0062039224
0.68774378 0.23146072 0.0061795525
0.68773317 0.23291728 0.0061551821
0.68772262 0.23437384 0.0061308122
0.68771201 0.2358304 0.0061064423
0.68770146 0.23728696 0.0060820724
0.68769085 0.2387435 0.0060577025
0.6876803 0.24020007 0.0060333321
0.68766969 0.24165663 0.0060089622
0.68765908 0.2431132 0.0059845923
0.68764853 0.24456975 0.0059602219
0.68763793 0.24602631 0.005935852
0.68762738 0.24748288 0.005911482
0.68761677 0.24893944 0.0058871116
0.68760622 0.25039598 0.0058627417
0.68759561 0.25185257 0.0058383718
0.68758506 0.2533091 0.0058140019
0.68757445 0.25476569 0.0057896315
0.68756384 0.25622225 0.0057652616
0.68755329 0.25767881 0.0057408917
0.68891597 0.25874755 0.0071810167
0.68890542 0.26020011 0.0071567134
0.68889487 0.26165268 0.0071324105
0.68888426 0.26310524 0.0071081067
0.68887371 0.26455781 0.0070838039
0.68886316 0.26601037 0.0070595006
