# .PCD v0.7 - Point Cloud Data file format
VERSION 0.7
FIELDS x y z
SIZE 4 4 4
TYPE F F F
COUNT 1 1 1
WIDTH 1393
HEIGHT 1
VIEWPOINT 0 0 0 1 0 0 0
POINTS 1393
DATA ascii
0.54069537 0.019888494 0.039537251
0.54068154 0.02138892 0.039519068
0.54066771 0.022889346 0.039500885
0.54065388 0.024389762 0.039482702
0.54064006 0.025890188 0.039464518
0.54062623 0.027390612 0.039446335
0.5406124 0.028891038 0.039428152
0.54059857 0.030391464 0.039409969
0.54217011 0.032091402 0.04061624
0.54215628 0.033588249 0.040598102
0.54214251 0.035085101 0.040579963
0.54212868 0.036581941 0.040561825
0.54211491 0.038078792 0.040543683
0.54210114 0.03957564 0.040525544
0.54208732 0.041072488 0.040507406
0.54207355 0.042569332 0.040489264
0.54047412 0.043895271 0.039246324
0.54046029 0.045395702 0.039228141
0.54044646 0.046896122 0.039209958
0.54043263 0.048396546 0.039191775
0.5404188 0.04989697 0.039173592
0.54040498 0.051397394 0.039155409
0.54039115 0.052897815 0.039137226
0.54037732 0.054398242 0.039119042
0.54036349 0.055898663 0.039100859
0.54193562 0.057537802 0.040307868
0.54192179 0.059034653 0.04028973
0.54190803 0.060531497 0.040271591
0.5418942 0.062028345 0.040253449
0.54188043 0.063525192 0.040235311
0.54345268 0.065142862 0.04144254
0.54343891 0.066636138 0.041424446
0.54342514 0.068129405 0.041406348
0.54341137 0.069622681 0.041388251
0.54339761 0.071115948 0.041370157
0.54338384 0.072609216 0.04135206
0.54337007 0.074102491 0.041333962
0.54335636 0.075595759 0.041315868
0.54334259 0.077089027 0.041297771
0.54332882 0.078582302 0.041279674
0.54172868 0.079990506 0.040035777
0.54171491 0.08148735 0.040017635
0.54328752 0.083062112 0.041225385
0.54327375 0.08455538 0.041207291
0.54326004 0.086048655 0.041189194
0.54324627 0.087541923 0.041171096
0.5432325 0.089035191 0.041153003
0.54321873 0.090528458 0.041134905
0.54320496 0.092021734 0.041116808
0.54319119 0.093515001 0.041098714
0.54317743 0.095008269 0.041080616
0.54316366 0.096501544 0.041062519
0.54314995 0.097994812 0.041044425
0.54313618 0.09948808 0.041026328
0.54470921 0.10101634 0.042234637
0.5446955 0.10250603 0.04221658
0.54468179 0.10399573 0.042198528
0.54466802 0.10548542 0.042180475
0.54465431 0.10697512 0.042162422
0.5446406 0.10846481 0.042144369
0.54462689 0.10995451 0.042126317
0.54461312 0.1114442 0.042108264
0.54459941 0.11293389 0.042090211
0.5445857 0.11442358 0.042072158
0.54457194 0.11591328 0.042054106
0.54455823 0.11740297 0.042036053
0.54454452 0.11889266 0.042018
0.54453075 0.12038236 0.041999947
0.54451704 0.12187205 0.041981895
0.54450333 0.12336174 0.041963842
0.54448956 0.12485144 0.041945789
0.54447585 0.12634113 0.041927736
0.54446214 0.12783082 0.041909683
0.54444838 0.12932052 0.041891631
0.54443467 0.13081022 0.041873578
0.54442096 0.1322999 0.041855525
0.54440719 0.1337896 0.041837472
0.54439348 0.1352793 0.04181942
0.54437977 0.13676898 0.041801367
0.54436606 0.13825868 0.041783314
0.54435229 0.13974838 0.041765261
0.54433858 0.14123806 0.041747209
0.54432487 0.14272776 0.041729156
0.54431111 0.14421746 0.041711103
0.5442974 0.14570715 0.04169305
0.54428369 0.14719684 0.041674998
0.54426992 0.14868653 0.041656945
0.54425621 0.15017623 0.041638892
0.5442425 0.15166593 0.041620836
0.54422873 0.15315561 0.041602783
0.54421502 0.15464531 0.04158473
0.54420131 0.15613501 0.041566677
0.5425995 0.15772562 0.040320575
0.54258573 0.15921889 0.040302478
0.54257196 0.16071215 0.040284384
0.54414636 0.16209377 0.041494466
0.54413265 0.16358347 0.041476414
0.54411894 0.16507316 0.041458361
0.54410523 0.16656286 0.041440308
0.54409146 0.16805255 0.041422255
0.54407775 0.16954224 0.041404203
0.54406404 0.17103194 0.04138615
0.54405028 0.17252162 0.041368097
0.54403657 0.17401132 0.041350044
0.54402286 0.17550102 0.041331992
0.54400909 0.17699072 0.041313939
0.54399538 0.1784804 0.041295886
0.54239309 0.18012467 0.040049132
0.54237932 0.18161795 0.040031034
0.54395419 0.18294948 0.041241728
0.54394048 0.18443918 0.041223675
0.54392672 0.18592887 0.041205622
0.54391301 0.18741857 0.041187569
0.5438993 0.18890826 0.041169517
0.54388553 0.19039795 0.041151464
0.54387182 0.19188765 0.041133411
0.54385811 0.19337733 0.041115358
0.5438444 0.19486703 0.041097306
0.54383063 0.19635673 0.041079253
0.54381692 0.19784643 0.0410612
0.54380322 0.19933611 0.041043147
0.54378945 0.20082581 0.041025091
0.54377574 0.20231549 0.041007038
0.54376203 0.20380519 0.040988985
0.54374826 0.20529489 0.040970933
0.54373455 0.20678458 0.04095288
0.54372084 0.20827428 0.040934827
0.54370707 0.20976396 0.040916774
0.54369336 0.21125366 0.040898722
0.54367965 0.21274336 0.040880669
0.54366589 0.21423306 0.040862616
0.54524159 0.21548232 0.042074345
0.54522789 0.21696845 0.042056337
0.54521424 0.21845455 0.042038325
0.54520053 0.21994068 0.042020317
0.54518682 0.2214268 0.042002305
0.54517311 0.22291291 0.041984297
0.5451594 0.22439903 0.041966289
0.54514575 0.22588515 0.041948278
0.54513204 0.22737126 0.041930269
0.54511833 0.22885738 0.041912258
0.54351491 0.23061967 0.040664036
0.5435012 0.23210938 0.040645983
0.54348743 0.23359907 0.04062793
0.54347372 0.23508875 0.040609878
0.54346001 0.23657845 0.040591825
0.54344624 0.23806813 0.040573772
0.54343253 0.23955785 0.040555719
0.54341882 0.24104753 0.040537667
0.54499507 0.24223243 0.041750174
0.54498142 0.24371853 0.041732166
0.54496771 0.24520467 0.041714154
0.544954 0.24669078 0.041696146
0.54494029 0.2481769 0.041678134
0.54492664 0.24966301 0.041660126
0.54491293 0.25114912 0.041642118
0.54489923 0.25263524 0.041624106
0.54488552 0.25412136 0.041606098
0.54487181 0.25560749 0.041588087
0.54485816 0.25709361 0.041570079
0.54484445 0.2585797 0.041552071
0.54483074 0.26006582 0.041534059
0.54481703 0.26155195 0.041516051
0.54480338 0.26303807 0.041498039
0.54478967 0.26452419 0.041480031
0.54477596 0.26601031 0.041462023
0.54476225 0.26749641 0.041444011
0.5447486 0.26898253 0.041426003
0.5447349 0.27046865 0.041407991
0.54472119 0.27195477 0.041389983
0.54470748 0.2734409 0.041371975
0.54469383 0.27492699 0.041353963
0.54468012 0.27641311 0.041335955
0.54466641 0.27789924 0.041317943
0.5446527 0.27938533 0.041299935
0.54463899 0.28087148 0.041281927
0.54621619 0.28195623 0.042495612
0.54620254 0.28343874 0.042477649
0.54618883 0.28492129 0.042459682
0.54617518 0.28640383 0.042441715
0.54616153 0.28788638 0.042423747
0.54614788 0.28936893 0.042405784
0.54613417 0.29085144 0.042387817
0.54612052 0.29233399 0.04236985
0.54610687 0.29381654 0.042351883
0.54609323 0.29529908 0.04233392
0.54607958 0.2967816 0.042315952
0.54606587 0.29826418 0.042297985
0.54605222 0.29974669 0.042280018
0.54603857 0.30122924 0.042262055
0.54443359 0.30316323 0.041011784
0.54441988 0.30464932 0.040993772
0.54599756 0.30567685 0.042208154
0.54598391 0.30715939 0.042190187
0.54597026 0.30864194 0.042172223
0.54595661 0.31012446 0.042154256
0.54594296 0.31160703 0.042136289
0.54592925 0.31308955 0.042118322
0.5459156 0.3145721 0.042100359
0.54590195 0.31605464 0.042082392
0.5458883 0.31753719 0.042064425
0.5458746 0.31901971 0.042046458
0.54586095 0.32050225 0.042028494
0.5458473 0.3219848 0.042010527
0.54583365 0.32346734 0.04199256
0.54582 0.32494989 0.041974593
0.54580629 0.32643244 0.04195663
0.54579264 0.32791495 0.041938663
0.54577899 0.3293975 0.041920695
0.54576534 0.33088005 0.041902728
0.54575169 0.33236259 0.041884765
0.54573798 0.33384511 0.041866798
0.54572433 0.33532766 0.041848831
0.54571068 0.3368102 0.041830864
0.54569703 0.33829272 0.0418129
0.54568338 0.33977526 0.041794933
0.54566967 0.34125781 0.041776966
0.54565603 0.34274036 0.041758999
0.54564238 0.34422287 0.041741036
0.54562873 0.34570542 0.041723069
0.54561508 0.34718797 0.041705102
0.54560137 0.34867051 0.041687135
0.54558772 0.35015306 0.041669168
0.54557407 0.35163561 0.041651204
0.54715288 0.35254508 0.04286705
0.54713923 0.35402405 0.042849127
0.54712564 0.35550299 0.042831205
0.54711199 0.35698196 0.042813279
0.54709834 0.35846093 0.042795356
0.54708475 0.3599399 0.042777434
0.5470711 0.36141887 0.042759512
0.54705745 0.36289781 0.042741589
0.54704386 0.36437681 0.042723667
0.54703021 0.36585575 0.042705745
0.54701656 0.36733472 0.042687822
0.5454101 0.36942604 0.041435611
0.5380429 -0.098670162 0.036167476
0.53802896 -0.097159013 0.036149163
0.53801501 -0.095647857 0.036130853
0.53800112 -0.094136707 0.036112539
0.53798717 -0.092625551 0.036094226
0.53797323 -0.091114402 0.036075912
0.53795934 -0.089603245 0.036057599
0.53794539 -0.088092081 0.036039285
0.5379315 -0.08658094 0.036020976
0.53791755 -0.085069776 0.036002662
0.53790361 -0.083558634 0.035984349
0.53947014 -0.081579693 0.037189864
0.53945625 -0.080072112 0.037171595
0.53944236 -0.07856454 0.037153326
0.53942847 -0.077056959 0.037135057
0.53941458 -0.075549386 0.037116788
0.53940064 -0.074041806 0.037098516
0.53938675 -0.072534233 0.037080247
0.53937286 -0.071026646 0.037061978
0.53935897 -0.06951908 0.037043709
0.53934509 -0.068011492 0.03702544
0.5393312 -0.066503927 0.037007168
0.53931731 -0.064996339 0.036988899
0.53930342 -0.063488774 0.03697063
0.53928953 -0.061981186 0.036952361
0.53927565 -0.060473617 0.036934093
0.53926176 -0.058966033 0.03691582
0.53924787 -0.057458464 0.036897551
0.53923398 -0.05595088 0.036879282
0.53922004 -0.054443311 0.036861014
0.53920615 -0.052935727 0.036842745
0.53919226 -0.051428158 0.036824472
0.53917837 -0.04992057 0.036806203
0.53916448 -0.048413001 0.036787935
0.5391506 -0.046905417 0.036769666
0.53913671 -0.045397848 0.036751393
0.53912282 -0.043890264 0.036733124
0.53910893 -0.042382695 0.036714856
0.53909504 -0.040875111 0.036696587
0.53908116 -0.039367542 0.036678318
0.53906727 -0.037859958 0.036660045
0.53905332 -0.036352389 0.036641777
0.53903943 -0.034844801 0.036623508
0.54060709 -0.03298391 0.037830494
0.54059321 -0.031479903 0.03781227
0.54057938 -0.02997591 0.037794042
0.54056549 -0.0284719 0.037775818
0.54055166 -0.026967907 0.03775759
0.54053777 -0.025463898 0.037739363
0.54210562 -0.023628039 0.038946602
0.54209179 -0.022127606 0.038928419
0.54207796 -0.020627188 0.03891024
0.54206413 -0.019126764 0.038892057
0.5420503 -0.017626338 0.038873874
0.54203647 -0.016125919 0.038855691
0.54202265 -0.014625495 0.038837507
0.54200882 -0.013125069 0.038819324
0.54199499 -0.011624645 0.038801141
0.54039919 -0.010423895 0.037557103
0.54038537 -0.0089198938 0.037538875
0.54037148 -0.0074158926 0.037520651
0.54035759 -0.0059118918 0.037502423
0.54034376 -0.0044078906 0.037484195
0.54032987 -0.0029038894 0.037465971
0.54189825 -0.0011216829 0.038673859
0.54188442 0.00037874226 0.038655676
0.54187059 0.0018791675 0.038637493
0.54185677 0.0033795927 0.038619313
0.54184294 0.0048800106 0.03860113
0.54182911 0.0063804355 0.038582947
0.54181528 0.0078808609 0.038564764
0.54180145 0.0093812859 0.038546581
0.54178762 0.010881704 0.038528398
0.5417738 0.012382129 0.038510215
0.54175997 0.013882554 0.038492031
0.54174614 0.015382979 0.038473848
0.54331493 0.0171187 0.039682355
0.54330111 0.018615542 0.039664213
0.54328734 0.020112392 0.039646074
0.54327357 0.021609241 0.039627936
0.54325974 0.023106083 0.039609794
0.54324597 0.024602933 0.039591655
0.54481494 0.026313614 0.040800419
0.54480118 0.027806887 0.040782325
0.54320461 0.029093472 0.039537236
0.54319078 0.030590322 0.039519098
0.54475987 0.032286692 0.040728036
0.54474616 0.033779968 0.040709939
0.54473239 0.035273239 0.040691841
0.54313558 0.036577705 0.03944654
0.54312181 0.038074553 0.039428398
0.54310805 0.039571404 0.03941026
0.54309422 0.041068248 0.039392121
0.54308045 0.042565096 0.039373979
0.54306662 0.04406194 0.039355841
0.54305285 0.045558795 0.039337702
0.54303902 0.047055639 0.03931956
0.54302526 0.048552483 0.039301421
0.54301149 0.050049335 0.039283283
0.54299766 0.051546179 0.039265145
0.54298389 0.053043026 0.039247002
0.54297006 0.054539874 0.039228864
0.54295629 0.056036722 0.039210726
0.54452598 0.057672292 0.040420398
0.54451221 0.05916556 0.040402304
0.54608196 0.060790401 0.041612111
0.54606825 0.062280096 0.041594055
0.54605454 0.063769788 0.041576002
0.54762447 0.065380327 0.042786017
0.54761076 0.066866443 0.042768009
0.54759711 0.068352558 0.042749997
0.5475834 0.06983868 0.042731989
0.54756969 0.071324788 0.042713977
0.54597217 0.072707951 0.041467685
0.5459584 0.074197643 0.041449632
0.54594469 0.075687334 0.04143158
0.54751492 0.077269256 0.042641941
0.54591721 0.078666724 0.041395474
0.5459035 0.080156416 0.041377421
0.54588979 0.081646115 0.041359369
0.54587603 0.083135806 0.041341316
0.54744643 0.084699847 0.042551894
0.54743272 0.086185962 0.042533882
0.54741907 0.087672077 0.042515874
0.54740536 0.089158192 0.042497866
0.54739165 0.090644307 0.042479854
0.54737794 0.09213043 0.042461846
0.54736429 0.093616545 0.042443834
0.54735059 0.09510266 0.042425826
0.54733688 0.096588776 0.042407818
0.54732317 0.098074891 0.042389806
0.54730946 0.099561013 0.042371798
0.54888022 0.10108213 0.04358286
0.54886657 0.10256467 0.043564893
0.54726839 0.10401936 0.04231777
0.54725468 0.10550548 0.042299759
0.54724103 0.1069916 0.042281751
0.54722732 0.10847771 0.042263739
0.54721361 0.10996383 0.042245731
0.5471999 0.11144994 0.042227723
0.54718626 0.11293606 0.042209711
0.54717255 0.11442218 0.042191703
0.54715884 0.11590829 0.042173691
0.54714513 0.11739441 0.042155683
0.54713148 0.11888053 0.042137675
0.54711777 0.12036665 0.042119663
0.54710406 0.12185276 0.042101655
0.54709035 0.12333888 0.042083643
0.5470767 0.124825 0.042065635
0.54706299 0.12631111 0.042047627
0.54704928 0.12779723 0.042029615
0.54703557 0.12928335 0.042011607
0.54702187 0.13076946 0.041993599
0.54700822 0.13225558 0.041975588
0.54699451 0.13374169 0.04195758
0.5469808 0.13522781 0.041939568
0.54696709 0.13671394 0.04192156
0.54695344 0.13820004 0.041903552
0.54693973 0.13968617 0.04188554
0.54692602 0.14117229 0.041867532
0.54691231 0.1426584 0.04184952
0.54689866 0.14414452 0.041831512
0.54688495 0.14563063 0.041813504
0.54687124 0.14711675 0.041795492
0.54685754 0.14860286 0.041777484
0.54684389 0.15008898 0.041759472
0.54683018 0.1515751 0.041741464
0.54681647 0.15306121 0.041723456
0.54680276 0.15454733 0.041705444
0.54678905 0.15603344 0.041687436
0.5467754 0.15751956 0.041669425
0.54676169 0.15900569 0.041651417
0.54674798 0.16049179 0.041633409
0.54673427 0.16197792 0.041615397
0.54672062 0.16346404 0.041597389
0.54670691 0.16495015 0.041579377
0.54669321 0.16643627 0.041561369
0.5466795 0.16792238 0.041543361
0.54666585 0.1694085 0.041525349
0.54665214 0.17089461 0.041507341
0.54663843 0.17238073 0.041489329
0.54662472 0.17386685 0.041471321
0.54661107 0.17535296 0.041453313
0.54659736 0.17683908 0.041435301
0.54658365 0.17832521 0.041417293
0.54656994 0.17981131 0.041399281
0.54655629 0.18129744 0.041381273
0.54654258 0.18278354 0.041363265
0.54652888 0.18426967 0.041345254
0.54651517 0.18575579 0.041327246
0.54650146 0.1872419 0.041309234
0.54648781 0.18872802 0.041291226
0.5464741 0.19021414 0.041273218
0.54646039 0.19170025 0.041255206
0.54644668 0.19318637 0.041237198
0.54643303 0.19467248 0.041219186
0.54641932 0.1961586 0.041201178
0.54640561 0.19764471 0.04118317
0.5463919 0.19913083 0.041165158
0.54637825 0.20061696 0.04114715
0.54636455 0.20210306 0.041129142
0.54635084 0.20358919 0.04111113
0.54633713 0.20507531 0.041093122
0.54632348 0.20656142 0.04107511
0.54630977 0.20804754 0.041057102
0.54788291 0.20930755 0.042271327
0.54786921 0.2107901 0.042253364
0.54785556 0.21227263 0.042235397
0.54784191 0.21375518 0.04221743
0.54782826 0.21523772 0.042199463
0.54781461 0.21672025 0.042181499
0.5478009 0.2182028 0.042163532
0.54778725 0.21968533 0.042145565
0.5477736 0.22116788 0.042127598
0.54775995 0.22265042 0.042109635
0.5477463 0.22413296 0.042091668
0.54773259 0.2256155 0.042073701
0.54771894 0.22709805 0.042055734
0.54770529 0.22858056 0.04203777
0.54610431 0.23033929 0.040786959
0.54609066 0.23182541 0.040768951
0.54607695 0.23331152 0.040750939
0.54606324 0.23479763 0.040732931
0.54604954 0.23628376 0.04071492
0.54603589 0.23776987 0.040696912
0.54602218 0.23925599 0.040678903
0.54759598 0.24044089 0.041894037
0.54758233 0.24192344 0.041876074
0.54756868 0.24340598 0.041858107
0.54755503 0.24488853 0.04184014
0.54754132 0.24637106 0.041822173
0.54752767 0.24785361 0.041804209
0.54751402 0.24933614 0.041786242
0.54750037 0.25081867 0.041768275
0.54748672 0.25230122 0.041750308
0.54747301 0.25378376 0.041732345
0.54745936 0.25526628 0.041714378
0.54744571 0.25674883 0.041696411
0.54743207 0.25823137 0.041678444
0.54741836 0.25971392 0.04166048
0.54740471 0.26119646 0.041642513
0.54739106 0.26267901 0.041624546
0.54737741 0.26416153 0.041606579
0.54736376 0.26564407 0.041588616
0.54735005 0.26712662 0.041570649
0.5473364 0.26860917 0.041552681
0.54732275 0.27009168 0.041534714
0.5473091 0.27157426 0.041516747
0.54729545 0.27305678 0.041498784
0.54728174 0.27453932 0.041480817
0.54726809 0.27602187 0.04146285
0.54725444 0.27750441 0.041444883
0.54724079 0.27898693 0.041426919
0.54722714 0.28046948 0.041408952
0.54721344 0.28195202 0.041390985
0.54719979 0.28343454 0.041373018
0.54877466 0.28450859 0.042589542
0.54876107 0.28598756 0.042571615
0.54874742 0.28746653 0.042553693
0.54873377 0.28894547 0.042535771
0.54872018 0.29042444 0.042517848
0.54711783 0.29232979 0.041265223
0.54710418 0.29381233 0.041247256
0.54709047 0.29529488 0.041229289
0.54707682 0.29677743 0.041211326
0.54706317 0.29825997 0.041193359
0.54704952 0.29974252 0.041175392
0.54703587 0.30122504 0.041157424
0.54702216 0.30270758 0.041139457
0.54700851 0.30419013 0.041121494
0.54699486 0.30567265 0.041103527
0.54698122 0.30715519 0.04108556
0.54696757 0.30863774 0.041067593
0.54695386 0.31012028 0.041049629
0.54694021 0.31160283 0.041031662
0.54692656 0.31308538 0.041013695
0.54691291 0.31456789 0.040995728
0.5484885 0.31556681 0.042213161
0.54847485 0.31704578 0.042195238
0.5484612 0.31852475 0.042177316
0.54685825 0.32049805 0.040923864
0.5468446 0.3219806 0.0409059
0.54683089 0.32346314 0.040887933
0.54681724 0.32494569 0.040869966
0.54680359 0.32642823 0.040851999
0.54678994 0.32791078 0.040834036
0.54677629 0.3293933 0.040816069
0.54676259 0.33087584 0.040798102
0.54674894 0.33235839 0.040780134
0.54673529 0.33384091 0.040762171
0.54672164 0.33532345 0.040744204
0.54829764 0.3362723 0.04196224
0.54828405 0.33775127 0.041944318
0.5482704 0.33923021 0.041926395
0.54825675 0.34070918 0.041908473
0.54824317 0.34218815 0.04189055
0.54822952 0.34366712 0.041872628
0.54821587 0.34514606 0.041854706
0.54820228 0.34662506 0.04183678
0.54818863 0.348104 0.041818857
0.54817504 0.34958297 0.041800935
0.54816139 0.35106194 0.041783012
0.54814774 0.35254091 0.04176509
0.54813415 0.35401985 0.041747168
0.5481205 0.35549882 0.041729245
0.54810685 0.35697779 0.041711319
0.54809326 0.35845673 0.041693397
0.54807961 0.3599357 0.041675474
0.54806596 0.3614147 0.041657552
0.54805237 0.36289364 0.04163963
0.54803872 0.36437261 0.041621707
0.54802507 0.36585155 0.041603785
0.54801148 0.36733055 0.041585863
0.5464074 0.36942187 0.04033098
0.54065096 -0.099674888 0.036285818
0.54063708 -0.0981673 0.036267549
0.54062319 -0.096659735 0.03624928
0.5406093 -0.095152147 0.036231011
0.54059541 -0.093644574 0.036212742
0.54058152 -0.092136994 0.03619447
0.54056758 -0.090629421 0.036176201
0.54055369 -0.089121841 0.036157932
0.5405398 -0.087614268 0.036139663
0.54052591 -0.086106688 0.036121394
0.54051203 -0.084599115 0.036103122
0.54049814 -0.083091535 0.036084853
0.54048425 -0.081583962 0.036066584
0.54047036 -0.080076374 0.036048315
0.54045647 -0.078568809 0.036030047
0.54044259 -0.077061221 0.036011774
0.5404287 -0.075553656 0.035993505
0.54041481 -0.074046068 0.035975236
0.54040092 -0.072538503 0.035956968
0.54038697 -0.071030915 0.035938695
0.54037309 -0.069523349 0.035920426
0.5403592 -0.068015762 0.035902157
0.54034531 -0.066508196 0.035883889
0.54033142 -0.065000609 0.03586562
0.54031754 -0.063493036 0.035847347
0.54030365 -0.061985455 0.035829078
0.54028976 -0.060477886 0.03581081
0.54185444 -0.058556166 0.037019722
0.54184055 -0.057052169 0.037001498
0.54182673 -0.055548161 0.03698327
0.54181284 -0.054044168 0.036965046
0.54179901 -0.052540161 0.036946818
0.54178512 -0.051036164 0.03692859
0.54177129 -0.049532156 0.036910366
0.5417574 -0.048028164 0.036892138
0.54174358 -0.046524171 0.036873914
0.54172969 -0.045020163 0.036855686
0.5417158 -0.043516167 0.036837462
0.54170197 -0.042012159 0.036819234
0.54168808 -0.040508166 0.036801007
0.54167426 -0.039004158 0.036782783
0.54166037 -0.037500165 0.036764555
0.54164654 -0.035996154 0.036746331
0.54163265 -0.034492161 0.036728103
0.54161882 -0.032988168 0.036709879
0.54160494 -0.031484161 0.036691651
0.54317027 -0.029633971 0.037901387
0.54315645 -0.028133554 0.037883203
0.54472184 -0.026294094 0.039093114
0.54470807 -0.024797251 0.039074972
0.54311496 -0.023632286 0.037828654
0.54310113 -0.022131853 0.037810471
0.54466665 -0.02030671 0.039020553
0.54465288 -0.018809861 0.039002415
0.54463911 -0.017313018 0.038984276
0.54462528 -0.015816169 0.038966138
0.54461151 -0.01431932 0.038947996
0.54459769 -0.012822478 0.038929857
0.54458392 -0.011325629 0.038911719
0.54457015 -0.0098287798 0.038893577
0.54455632 -0.0083319377 0.038875438
0.54454255 -0.0068350886 0.0388573
0.54452872 -0.005338239 0.038839158
0.54451495 -0.0038413971 0.038821019
0.54450113 -0.0023445478 0.038802881
0.54448736 -0.00084769842 0.038784739
0.54605335 0.00092379807 0.039995436
0.54603958 0.002417064 0.039977338
0.54602587 0.0039103376 0.039959241
0.5460121 0.0054036034 0.039941147
0.54599833 0.0068968772 0.03992305
0.54598457 0.008390151 0.039904952
0.5459708 0.0098834168 0.039886858
0.54595703 0.01137669 0.039868761
0.54594326 0.012869956 0.039850663
0.54592955 0.014363229 0.03983257
0.54591578 0.015856495 0.039814472
0.54590201 0.017349768 0.039796375
0.54588825 0.018843034 0.039778281
0.54587448 0.020336309 0.039760184
0.54586071 0.021829583 0.039742086
0.54584694 0.023322849 0.039723992
0.54583317 0.024816122 0.039705895
0.54581946 0.026309388 0.039687797
0.54580569 0.027802661 0.039669704
0.54579192 0.029295927 0.039651606
0.54577816 0.0307892 0.039633509
0.54576439 0.032282468 0.039615415
0.54575062 0.033775739 0.039597318
0.54573685 0.035269015 0.03957922
0.54572308 0.036762279 0.039561126
0.54570937 0.038255554 0.039543029
0.5456956 0.039748818 0.039524931
0.54568183 0.041242089 0.039506838
0.54566807 0.042735364 0.03948874
0.5456543 0.044228632 0.039470643
0.54564053 0.045721903 0.039452549
0.54562676 0.047215171 0.039434452
0.54561305 0.048708443 0.039416354
0.54559928 0.05020171 0.03939826
0.54558551 0.051694982 0.039380163
0.54557174 0.053188249 0.039362065
0.54555798 0.054681521 0.039343972
0.54554421 0.056174792 0.039325874
0.54711151 0.057806797 0.040538259
0.54867893 0.059431653 0.041750763
0.54866523 0.060917769 0.041732755
0.54865152 0.062403884 0.041714747
0.54863787 0.063890003 0.041696735
0.55020541 0.065496974 0.042909425
0.5501917 0.066979513 0.042891458
0.55017805 0.068462051 0.042873491
0.5501644 0.06994459 0.042855524
0.55015075 0.071427129 0.04283756
0.55013704 0.072909668 0.042819593
0.55012339 0.074392207 0.042801626
0.55010974 0.075874753 0.042783659
0.55009609 0.077357292 0.042765696
0.55008245 0.078839831 0.042747729
0.55006874 0.08032237 0.042729761
0.55005509 0.081804909 0.042711794
0.55004144 0.083287448 0.042693831
0.55002779 0.084769987 0.042675864
0.55001414 0.086252533 0.042657897
0.55000043 0.087735072 0.04263993
0.54998678 0.089217611 0.042621963
0.54997313 0.09070015 0.042603999
0.54995948 0.092182688 0.042586032
0.54994583 0.093665227 0.042568065
0.54993212 0.095147774 0.042550098
0.54991847 0.096630313 0.042532135
0.54990482 0.098112851 0.042514168
0.54989117 0.09959539 0.042496201
0.54987746 0.10107793 0.042478234
0.54986382 0.10256048 0.04246027
0.54985017 0.10404301 0.042442303
0.54983652 0.10552555 0.042424336
0.54982287 0.10700809 0.042406369
0.54980916 0.10849063 0.042388406
0.54979551 0.10997317 0.042370439
0.54978186 0.11145572 0.042352472
0.54976821 0.11293826 0.042334504
0.54975456 0.11442079 0.042316541
0.54974085 0.11590333 0.042298574
0.5497272 0.11738587 0.042280607
0.54971355 0.11886841 0.04226264
0.5496999 0.12035096 0.042244673
0.54968625 0.12183349 0.042226709
0.54967254 0.12331603 0.042208742
0.54965889 0.12479857 0.042190775
0.54964525 0.12628111 0.042172808
0.5496316 0.12776366 0.042154845
0.54961789 0.12924619 0.042136878
0.54960424 0.13072874 0.042118911
0.54959059 0.13221127 0.042100944
0.54957694 0.13369381 0.04208298
0.54956329 0.13517636 0.042065013
0.54954958 0.13665889 0.042047046
0.54953593 0.13814144 0.042029079
0.54952228 0.13962397 0.042011116
0.54950863 0.14110652 0.041993149
0.54949498 0.14258906 0.041975182
0.54948127 0.14407159 0.041957214
0.54946762 0.14555414 0.041939251
0.54945397 0.14703667 0.041921284
0.54944032 0.14851922 0.041903317
0.54942667 0.15000175 0.04188535
0.54941297 0.1514843 0.041867387
0.54939932 0.15296684 0.041849419
0.54938567 0.15444937 0.041831452
0.54937202 0.15593192 0.041813485
0.54935831 0.15741445 0.041795518
0.54934466 0.158897 0.041777555
0.54933101 0.16037953 0.041759588
0.54931736 0.16186208 0.041741621
0.54930371 0.16334462 0.041723654
0.54929 0.16482715 0.04170569
0.54927635 0.1663097 0.041687723
0.5492627 0.16779225 0.041669756
0.54924905 0.16927478 0.041651789
0.5492354 0.17075732 0.041633826
0.54922169 0.17223985 0.041615859
0.54920805 0.1737224 0.041597892
0.5491944 0.17520493 0.041579925
0.54918075 0.17668748 0.041561961
0.5491671 0.17817001 0.041543994
0.54915339 0.17965256 0.041526027
0.54913974 0.1811351 0.04150806
0.54912609 0.18261763 0.041490097
0.54911244 0.18410018 0.04147213
0.54909879 0.18558271 0.041454162
0.54908508 0.18706526 0.041436195
0.54907143 0.1885478 0.041418232
0.54905778 0.19003034 0.041400265
0.54904413 0.19151288 0.041382298
0.54903042 0.19299541 0.041364331
0.54901677 0.19447796 0.041346364
0.54900312 0.19596051 0.0413284
0.54898947 0.19744304 0.041310433
0.54897583 0.19892557 0.041292466
0.54896212 0.20040812 0.041274499
0.54894847 0.20189066 0.041256536
0.54893482 0.20337319 0.041238569
0.54892117 0.20485574 0.041220602
0.54890752 0.20633827 0.041202635
0.54889381 0.20782082 0.041184671
0.54888016 0.20930336 0.041166704
0.54886651 0.2107859 0.041148737
0.54885286 0.21226844 0.04113077
0.55042374 0.21351416 0.042347878
0.55041009 0.21499312 0.042329952
0.5503965 0.21647209 0.04231203
0.55038285 0.21795104 0.042294107
0.5503692 0.21943001 0.042276185
0.55035561 0.22090898 0.042258263
0.55034196 0.22238794 0.04224034
0.55032837 0.22386691 0.042222418
0.55031472 0.22534586 0.042204496
0.54871625 0.22709385 0.04095111
0.54870254 0.22857638 0.040933143
0.54868889 0.23005892 0.040915176
0.54867524 0.23154147 0.040897209
0.54866159 0.233024 0.040879246
0.54864794 0.23450655 0.040861279
0.54863423 0.23598908 0.040843312
0.54862058 0.23747163 0.040825345
0.54860693 0.23895416 0.040807381
0.54859328 0.2404367 0.040789414
0.54857963 0.24191923 0.040771447
0.54856592 0.2434018 0.04075348
0.54855227 0.24488433 0.040735517
0.54853863 0.24636687 0.04071755
0.54852498 0.2478494 0.040699583
0.54851127 0.24933194 0.040681615
0.54849762 0.25081447 0.040663652
0.54848397 0.25229701 0.040645685
0.54847032 0.25377956 0.040627718
0.54845667 0.25526211 0.040609751
0.54844296 0.25674462 0.040591788
0.54842931 0.2582272 0.04057382
0.55000126 0.25936201 0.04179227
0.54998761 0.26084098 0.041774347
0.54997396 0.26231995 0.041756421
0.54996037 0.26379892 0.041738499
0.54994673 0.26527786 0.041720577
0.54993308 0.26675683 0.041702654
0.54991949 0.2682358 0.041684732
0.54832006 0.27008751 0.040430091
0.54830635 0.27157006 0.040412124
0.5482927 0.27305257 0.040394157
0.54827905 0.27453512 0.04037619
0.54985136 0.27563062 0.041595116
0.54983771 0.27710959 0.041577194
0.54982406 0.27858856 0.041559272
0.54981047 0.2800675 0.041541349
0.54979682 0.28154647 0.041523427
0.54978317 0.28302544 0.041505504
0.54976958 0.28450441 0.041487582
0.54975593 0.28598335 0.041469656
0.54974228 0.28746232 0.041451734
0.54972869 0.28894129 0.041433811
0.54971504 0.29042026 0.041415889
0.54970139 0.2918992 0.041397966
0.5496878 0.29337817 0.041380044
0.54967415 0.29485714 0.041362122
0.5496605 0.29633611 0.041344199
0.54964691 0.29781508 0.041326273
0.54963326 0.29929405 0.041308351
0.54961962 0.30077299 0.041290428
0.54960603 0.30225196 0.041272506
0.54959238 0.30373093 0.041254584
0.54957873 0.3052099 0.041236661
0.54956514 0.30668885 0.041218739
0.54955149 0.30816782 0.041200817
0.54953784 0.30964679 0.041182891
0.54952425 0.31112576 0.041164968
0.5495106 0.3126047 0.041147046
0.54949695 0.31408367 0.041129123
0.54948336 0.31556264 0.041111201
0.54946971 0.31704161 0.041093279
0.54945606 0.31852055 0.041075356
0.54944247 0.31999952 0.041057434
0.54942882 0.32147849 0.041039508
0.54941523 0.32295746 0.041021585
0.54940158 0.32443643 0.041003663
0.54938793 0.3259154 0.040985741
0.54937434 0.32739434 0.040967818
0.54936069 0.32887331 0.040949896
0.54934704 0.33035228 0.040931974
0.54933345 0.33183125 0.040914051
0.5493198 0.33331019 0.040896125
0.54930615 0.33478916 0.040878203
0.54929256 0.33626813 0.04086028
0.54927891 0.3377471 0.040842358
0.54926527 0.33922604 0.040824436
0.54925168 0.34070501 0.040806513
0.54923803 0.34218395 0.040788591
0.54922438 0.34366292 0.040770669
0.54921079 0.34514189 0.040752746
0.54919714 0.34662086 0.04073482
0.54918349 0.34809983 0.040716898
0.5491699 0.3495788 0.040698975
0.55074382 0.35048831 0.041920114
0.55073023 0.3519637 0.041902237
0.55071664 0.35343906 0.041884355
0.55070305 0.35491446 0.041866478
0.55068946 0.35638985 0.041848596
0.55067587 0.35786521 0.041830719
0.54907447 0.35993153 0.040573515
0.54906082 0.3614105 0.040555593
0.55063504 0.3622914 0.041777078
0.55062145 0.36376676 0.0417592
0.55060786 0.36524215 0.041741319
0.54900634 0.36732635 0.040483903
0.54324037 -0.099168427 0.036391217
0.54322648 -0.097664431 0.036372993
0.54321265 -0.096160427 0.036354765
0.54319876 -0.09465643 0.036336541
0.54318494 -0.093152426 0.036318313
0.54317105 -0.09164843 0.036300089
0.54315722 -0.090144418 0.036281861
0.54314333 -0.088640429 0.036263634
0.54312944 -0.087136433 0.036245409
0.54311562 -0.085632429 0.036227182
0.54310173 -0.084128432 0.036208957
0.5430879 -0.082624421 0.03619073
0.54307401 -0.081120431 0.036172505
0.54306018 -0.07961642 0.036154278
0.5430463 -0.078112431 0.03613605
0.54303247 -0.076608419 0.036117826
0.54301858 -0.075104423 0.036099598
0.54300475 -0.073600434 0.036081374
0.54299086 -0.072096422 0.036063146
0.54297704 -0.070592433 0.036044922
0.54296315 -0.069088422 0.036026694
0.54294932 -0.067584425 0.036008466
0.54293543 -0.066080421 0.035990242
0.5429216 -0.064576425 0.035972014
0.54290771 -0.063072413 0.03595379
0.54289389 -0.061568424 0.035935562
0.54288 -0.060064431 0.035917338
0.54286611 -0.05856042 0.03589911
0.54285228 -0.057056427 0.035880886
0.54283839 -0.055552419 0.035862658
0.54282457 -0.054048426 0.03584443
0.54438698 -0.052144576 0.037056178
0.54437315 -0.050644156 0.037037995
0.54435933 -0.049143724 0.037019812
0.5443455 -0.047643308 0.037001632
0.54590809 -0.04575735 0.038213644
0.54589427 -0.044260491 0.038195502
0.54430401 -0.043142039 0.036947083
0.54429018 -0.041641604 0.0369289
0.54427636 -0.040141188 0.036910716
0.54426253 -0.038640771 0.036892533
0.5442487 -0.037140336 0.03687435
0.54423487 -0.035639919 0.036856167
0.54422104 -0.034139488 0.036837984
0.54420722 -0.032639068 0.036819801
0.54419339 -0.031138651 0.036801618
0.54575634 -0.029292028 0.038014106
0.54574257 -0.027795186 0.037995968
0.54572874 -0.026298329 0.03797783
0.54571497 -0.024801487 0.037959687
0.54570115 -0.023304645 0.037941549
0.54568738 -0.021807788 0.037923411
0.54567355 -0.020310948 0.037905268
0.54565978 -0.018814098 0.03788713
0.54722297 -0.016999673 0.039099969
0.54720926 -0.0155064 0.039081875
0.54719549 -0.014013134 0.039063778
0.54718173 -0.01251986 0.03904568
0.54716796 -0.011026594 0.039027587
0.54715419 -0.0095333206 0.039009489
0.54714042 -0.0080400547 0.038991392
0.54712665 -0.0065467809 0.038973298
0.54711288 -0.0050535076 0.0389552
0.54709917 -0.0035602415 0.038937103
0.5470854 -0.002066968 0.038919009
0.54707164 -0.00057370204 0.038900912
0.54705787 0.00091957144 0.038882814
0.5470441 0.0024128375 0.038864721
0.54860783 0.0041736164 0.040078208
0.54701656 0.0053993771 0.038828526
0.54700279 0.0068926504 0.038810432
0.54698908 0.0083859237 0.038792334
0.54697531 0.0098791905 0.038774237
0.54696155 0.011372464 0.038756143
0.54694778 0.01286573 0.038738046
0.54693401 0.014359003 0.038719948
0.54849797 0.016091168 0.039933786
0.54848427 0.017580858 0.039915733
0.54847056 0.019070549 0.03989768
0.54845679 0.020560246 0.039879628
0.54844308 0.022049936 0.039861575
0.54842937 0.023539633 0.039843522
0.5484156 0.025029324 0.039825469
0.54840189 0.026519021 0.039807416
0.54838818 0.028008711 0.039789364
0.54837441 0.029498409 0.039771311
0.54836071 0.030988099 0.039753258
0.548347 0.032477789 0.039735205
0.54833323 0.033967488 0.039717153
0.54831952 0.035457179 0.0396991
0.54830581 0.036946874 0.039681047
0.54829204 0.038436566 0.039662994
0.54827833 0.039926261 0.039644938
0.54826462 0.041415952 0.039626885
0.54825091 0.042905647 0.039608832
0.54823714 0.044395339 0.03959078
0.54822344 0.045885034 0.039572727
0.54663128 0.047210947 0.038321834
0.54819596 0.048864421 0.039536621
0.54818225 0.050354116 0.039518569
0.54816854 0.051843807 0.039500516
0.54815477 0.053333499 0.039482463
0.54814106 0.054823194 0.03946441
0.54812735 0.056312889 0.039446358
0.55127096 0.058080077 0.04189463
0.55125731 0.059562616 0.041876663
0.55124366 0.061045155 0.041858695
0.55122995 0.062527694 0.041840732
0.5512163 0.064010233 0.041822765
0.55120265 0.065492779 0.041804798
0.55276787 0.067092597 0.043020278
0.55275428 0.06857156 0.043002356
0.55274063 0.070050523 0.042984433
0.55272698 0.071529485 0.042966511
0.55113435 0.072905473 0.041714966
0.5511207 0.074388012 0.041697003
0.5526861 0.075966381 0.04291274
0.55267251 0.077445343 0.042894818
0.55107969 0.078835636 0.041643102
0.55106604 0.080318175 0.041625135
0.55105239 0.081800714 0.041607171
0.55103874 0.083283253 0.041589204
0.55102503 0.084765792 0.041571237
0.55101138 0.086248331 0.04155327
0.55257708 0.087798089 0.042769358
0.55256343 0.089277051 0.042751435
0.55097038 0.090695955 0.041499373
0.55095673 0.092178494 0.041481405
0.55252254 0.093713939 0.042697668
0.55250895 0.095192902 0.042679746
0.5524953 0.096671864 0.042661823
0.55248171 0.098150834 0.042643897
0.55246806 0.099629797 0.042625975
0.55245441 0.10110876 0.042608052
0.55244082 0.10258772 0.04259013
0.55242717 0.10406668 0.042572208
0.55241352 0.10554565 0.042554285
0.55239993 0.10702461 0.042536363
0.55238628 0.10850357 0.042518437
0.55237263 0.10998254 0.042500515
0.55235904 0.11146151 0.042482592
0.5523454 0.11294047 0.04246467
0.55233175 0.11441943 0.042446747
0.55231816 0.11589839 0.042428825
0.55230451 0.11737736 0.042410903
0.55229086 0.11885632 0.04239298
0.55227727 0.12033528 0.042375054
0.55226362 0.12181424 0.042357132
0.55224997 0.12329321 0.042339209
0.55223638 0.12477218 0.042321287
0.55222273 0.12625113 0.042303365
0.55220908 0.1277301 0.042285442
0.55219549 0.12920906 0.04226752
0.55218184 0.13068803 0.042249598
0.55216819 0.132167 0.042231672
0.5521546 0.13364595 0.042213749
0.55214095 0.13512491 0.042195827
0.5521273 0.13660388 0.042177904
0.55211371 0.13808285 0.042159982
0.55210006 0.1395618 0.04214206
0.55208641 0.14104077 0.042124137
0.55207282 0.14251973 0.042106215
0.55205917 0.1439987 0.042088289
0.55046493 0.14554994 0.040834624
0.55045122 0.14703248 0.040816657
0.55043757 0.14851502 0.04079869
0.55042392 0.14999756 0.040780727
0.55041027 0.15148011 0.04076276
0.55039662 0.15296264 0.040744793
0.55038291 0.15444517 0.040726826
0.55195016 0.1558304 0.041944906
0.55193651 0.15730937 0.041926984
0.55192292 0.15878832 0.041909061
0.55190927 0.16026729 0.041891139
0.55189562 0.16174625 0.041873217
0.55188203 0.16322522 0.041855294
0.55186838 0.16470419 0.041837372
0.55185473 0.16618316 0.04181945
0.55184114 0.16766211 0.041801523
0.55182749 0.16914108 0.041783601
0.55181384 0.17062004 0.041765679
0.55180025 0.17209901 0.041747756
0.5517866 0.17357796 0.041729834
0.55177295 0.17505693 0.041711912
0.55175936 0.17653589 0.041693989
0.55174571 0.17801486 0.041676067
0.55173206 0.17949381 0.041658141
0.55171847 0.18097278 0.041640218
0.55170482 0.18245175 0.041622296
0.55169117 0.18393071 0.041604374
0.55167758 0.18540968 0.041586451
0.55166394 0.18688864 0.041568529
0.55165029 0.18836761 0.041550606
0.5516367 0.18984656 0.041532684
0.55162305 0.19132553 0.041514758
0.5516094 0.19280449 0.041496836
0.55159581 0.19428346 0.041478913
0.55158216 0.19576243 0.041460991
0.55156857 0.19724138 0.041443069
0.55155492 0.19872035 0.041425146
0.55154127 0.20019931 0.041407224
0.55152768 0.20167828 0.041389301
0.55151403 0.20315723 0.041371375
0.55150038 0.2046362 0.041353453
0.55148679 0.20611516 0.041335531
0.55147314 0.20759413 0.041317608
0.55145949 0.2090731 0.041299686
0.5514459 0.21055205 0.041281763
0.55143225 0.21203102 0.041263841
0.5514186 0.21350998 0.041245919
0.55140501 0.21498895 0.041227993
0.55139136 0.2164679 0.04121007
0.55137771 0.21794687 0.041192148
0.55136412 0.21942583 0.041174226
0.55135047 0.2209048 0.041156303
0.55133682 0.22238377 0.041138381
0.55132324 0.22386272 0.041120458
0.55130959 0.22534169 0.041102536
0.55129594 0.22682065 0.04108461
0.55128235 0.22829962 0.041066688
0.5512687 0.22977857 0.041048765
0.55125505 0.23125754 0.041030843
0.55124146 0.2327365 0.04101292
0.55122781 0.23421547 0.040994998
0.55121416 0.23569442 0.040977076
0.55120057 0.23717339 0.040959153
0.55118692 0.23865235 0.040941227
0.55117327 0.24013133 0.040923305
0.55115968 0.24161029 0.040905382
0.55114603 0.24308926 0.04088746
0.55113238 0.24456821 0.040869538
0.55111879 0.24604718 0.040851615
0.55110514 0.24752614 0.040833693
0.55109155 0.24900511 0.040815771
0.5510779 0.25048408 0.040797845
0.55106425 0.25196302 0.040779922
0.55105066 0.25344199 0.040762
0.55103701 0.25492096 0.040744077
0.55102336 0.2563999 0.040726155
0.55100977 0.25787887 0.040708233
0.55099612 0.25935784 0.04069031
0.55098248 0.26083681 0.040672388
0.55096889 0.26231575 0.040654462
0.55095524 0.26379472 0.040636539
0.55094159 0.26527369 0.040618617
0.550928 0.26675266 0.040600695
0.55091435 0.26823163 0.040582772
0.5509007 0.2697106 0.04056485
0.55088711 0.27118954 0.040546928
0.55087346 0.27266851 0.040529005
0.55085981 0.27414748 0.040511079
0.55084622 0.27562645 0.040493157
0.55083257 0.27710539 0.040475234
0.55081892 0.27858436 0.040457312
0.55080533 0.28006333 0.04043939
0.55079168 0.2815423 0.040421467
0.55236173 0.28261635 0.041643277
0.55234814 0.28409174 0.041625395
0.55233455 0.28556713 0.041607518
0.55232096 0.2870425 0.041589636
0.55230737 0.28851789 0.041571759
0.55229372 0.28999329 0.041553877
0.55228013 0.29146868 0.041536
0.55226654 0.29294404 0.041518118
0.55225295 0.29441944 0.041500241
0.55223936 0.29589483 0.041482359
0.55222577 0.29737023 0.041464482
0.55221218 0.29884559 0.0414466
0.55219859 0.30032098 0.041428722
0.552185 0.30179638 0.041410841
0.55217135 0.30327177 0.041392963
0.55215776 0.30474716 0.041375082
0.55214417 0.30622253 0.041357204
0.55213058 0.30769792 0.041339323
0.55211699 0.30917332 0.041321445
0.5521034 0.31064871 0.041303564
0.55208981 0.31212407 0.041285686
0.55207622 0.31359947 0.041267805
0.55206263 0.31507486 0.041249927
0.55204904 0.31655025 0.041232046
0.55203539 0.31802562 0.041214168
0.5520218 0.31950101 0.041196287
0.55200821 0.32097641 0.041178409
0.55199462 0.3224518 0.041160528
0.55198103 0.32392716 0.04114265
0.55196744 0.32540256 0.041124769
0.55195385 0.32687795 0.041106891
0.55194026 0.32835335 0.041089009
0.55192667 0.32982874 0.041071132
0.55191302 0.3313041 0.04105325
0.55189943 0.3327795 0.041035373
0.55188584 0.33425489 0.041017491
0.55187225 0.33573028 0.040999614
0.55185866 0.33720565 0.040981732
0.55184507 0.33868104 0.040963855
0.55183148 0.34015641 0.040945977
0.55181789 0.3416318 0.040928096
0.5518043 0.34310719 0.040910218
0.55179071 0.34458259 0.040892337
0.55177706 0.34605795 0.040874459
0.55176347 0.34753335 0.040856577
0.55174989 0.34900874 0.0408387
0.55332154 0.34991467 0.042062581
0.55330795 0.35138649 0.042044744
0.55170912 0.35343489 0.040785059
0.55169553 0.35491025 0.040767182
0.55168194 0.35638568 0.0407493
0.55166835 0.35786104 0.040731423
0.55165476 0.35933644 0.040713541
0.55322659 0.36021733 0.041937727
0.553213 0.36168918 0.041919891
0.55319947 0.36316097 0.041902058
0.55318588 0.36463279 0.041884221
0.55317235 0.3661046 0.041866384
0.55157316 0.36818877 0.040606264
0.54582489 -0.098661952 0.036501903
0.54581106 -0.097161531 0.03648372
0.54422432 -0.096164681 0.03523415
0.54421049 -0.094660692 0.035215925
0.54419661 -0.09315668 0.035197698
0.54418278 -0.091652684 0.035179473
0.54416889 -0.09014868 0.035161246
0.54572809 -0.088158995 0.036374621
0.54571426 -0.086658567 0.036356438
0.54412735 -0.085636683 0.035106566
0.54411346 -0.084132686 0.035088342
0.54409963 -0.082628682 0.035070114
0.54408574 -0.081124686 0.03505189
0.54407191 -0.079620682 0.035033662
0.54563129 -0.077656031 0.036247343
0.54561746 -0.076155595 0.03622916
0.54403031 -0.075108685 0.034978982
0.54558986 -0.073154762 0.036192793
0.54557604 -0.071654327 0.03617461
0.54556221 -0.070153907 0.036156427
0.54554838 -0.068653479 0.036138244
0.54553455 -0.067153059 0.036120061
0.54552072 -0.065652639 0.036101878
0.54550689 -0.064152211 0.036083695
0.54549307 -0.062651791 0.036065511
0.54547924 -0.061151359 0.036047328
0.54546541 -0.059650939 0.036029145
0.54545158 -0.058150522 0.036010962
0.54543775 -0.056650091 0.035992779
0.54542392 -0.055149671 0.035974596
0.5454101 -0.053649254 0.035956416
0.54697013 -0.051748969 0.037170917
0.54695636 -0.050252125 0.037152778
0.54694253 -0.048755269 0.037134636
0.54692876 -0.047258426 0.037116498
0.54848897 -0.045376036 0.038331177
0.54690117 -0.04426473 0.037080217
0.5468874 -0.042767886 0.037062079
0.54687357 -0.041271046 0.03704394
0.5468598 -0.039774187 0.037025798
0.54684603 -0.038277347 0.03700766
0.5468322 -0.036780503 0.036989521
0.54839259 -0.034923144 0.038204502
0.54837888 -0.03342988 0.038186409
0.54836512 -0.031936597 0.038168311
0.54835135 -0.030443331 0.038150214
0.54833758 -0.028950065 0.038132116
0.54832381 -0.027456785 0.038114022
0.54831004 -0.025963519 0.038095925
0.54987073 -0.024134779 0.039311253
0.54985702 -0.022645075 0.0392932
0.54984325 -0.021155393 0.039275147
0.54982954 -0.019665696 0.039257094
0.54981583 -0.018176004 0.039239042
0.54980206 -0.016686307 0.039220989
0.54978836 -0.015196617 0.039202936
0.54977465 -0.013706919 0.039184883
0.54818618 -0.012524087 0.037933059
0.54974717 -0.010727531 0.039148778
0.54973346 -0.0092378417 0.039130725
0.54971975 -0.0077481512 0.039112672
0.54970598 -0.0062584537 0.039094619
0.54969227 -0.0047687632 0.039076567
0.54967856 -0.0032790657 0.039058514
0.5496648 -0.0017893756 0.039040461
0.54965109 -0.00029967792 0.039022408
0.54963738 0.0011900122 0.039004356
0.55119872 0.0029508022 0.040220547
0.55118501 0.0044369167 0.040202539
0.5511713 0.0059230383 0.040184528
0.55115759 0.0074091526 0.04016652
0.55114394 0.0088952668 0.040148508
0.55113024 0.010381388 0.0401305
0.55111653 0.011867503 0.040112492
0.55110282 0.013353617 0.04009448
0.55108917 0.01483974 0.040076472
0.55107546 0.016325854 0.040058464
0.55106175 0.017811967 0.040040452
0.55104804 0.01929809 0.040022444
0.55103439 0.020784203 0.040004432
0.55102068 0.022270318 0.039986424
0.55100697 0.023756441 0.039968416
0.55099326 0.025242554 0.039950404
0.55097961 0.026728669 0.039932396
0.55096591 0.02821479 0.039914384
0.55252784 0.029907616 0.041131362
0.55251414 0.031390153 0.041113395
0.55250049 0.032872699 0.041095428
0.55248684 0.034355238 0.041077465
0.55247319 0.035837777 0.041059498
0.55245954 0.037320316 0.041041531
0.55244583 0.038802855 0.041023564
0.55243218 0.040285401 0.041005597
0.55241853 0.041767936 0.040987633
0.55240488 0.043250475 0.040969666
0.55081522 0.044562072 0.039716281
0.55080158 0.046048187 0.039698273
0.55078787 0.047534306 0.039680261
0.55077416 0.049020421 0.039662253
0.55076045 0.05050654 0.039644241
0.5507468 0.051992655 0.039626233
0.55230922 0.053628258 0.040843904
0.55229557 0.055110797 0.040825937
0.55228192 0.056593336 0.04080797
0.55384451 0.058214631 0.042025857
0.55383092 0.059693594 0.042007934
0.55381727 0.061172556 0.041990012
0.55380362 0.062651522 0.041972086
0.55379003 0.064130485 0.041954163
0.55377638 0.065609448 0.041936241
0.55376273 0.06708841 0.041918319
0.55374914 0.06856738 0.041900396
0.55373549 0.070046343 0.041882474
0.5537219 0.071525306 0.041864552
0.55370826 0.073004268 0.041846629
0.55369461 0.074483231 0.041828703
0.55368102 0.075962193 0.041810781
0.55366737 0.077441156 0.041792858
0.55365372 0.078920119 0.041774936
0.55364013 0.080399089 0.041757014
0.55362648 0.081878051 0.041739091
0.55361283 0.083357014 0.041721169
0.55359924 0.084835976 0.041703243
0.55358559 0.086314939 0.04168532
0.55357194 0.087793902 0.041667398
0.55355835 0.089272864 0.041649476
0.5535447 0.090751827 0.041631553
0.55353105 0.092230789 0.041613631
0.55351746 0.093709752 0.041595709
0.55350381 0.095188715 0.041577786
0.55349016 0.096667685 0.04155986
0.55347657 0.098146647 0.041541938
0.55346292 0.09962561 0.041524015
0.55344927 0.10110457 0.041506093
0.55343568 0.10258354 0.041488171
0.55342203 0.1040625 0.041470248
0.55340838 0.10554146 0.041452326
0.55339479 0.10702042 0.041434404
0.55338115 0.10849939 0.041416477
0.5533675 0.10997836 0.041398555
0.55335391 0.11145732 0.041380633
0.55334026 0.11293628 0.04136271
0.55332661 0.11441524 0.041344788
0.55331302 0.11589421 0.041326866
0.55329937 0.11737317 0.041308943
0.55328572 0.11885213 0.041291021
0.55327213 0.12033109 0.041273095
0.55325848 0.12181006 0.041255172
0.55324489 0.12328902 0.04123725
0.55323124 0.12476799 0.041219328
0.55321759 0.12624694 0.041201405
0.553204 0.12772591 0.041183483
0.5547682 0.12917195 0.042403445
0.55475456 0.13064733 0.042385567
0.55316311 0.13216281 0.041129712
0.55314946 0.13364176 0.04111179
0.55471379 0.1350735 0.042331927
0.5547002 0.13654888 0.042314049
0.55468661 0.13802427 0.042296167
0.55467302 0.13949965 0.04227829
0.55465943 0.14097504 0.042260408
0.55464584 0.14245042 0.042242531
0.55305403 0.14399451 0.040986329
0.55304044 0.14547347 0.040968407
0.5530268 0.14695244 0.040950485
0.55301315 0.14843139 0.040932562
0.55299956 0.14991036 0.04091464
0.55298591 0.15138933 0.040896717
0.55297226 0.15286829 0.040878795
0.55453706 0.15425353 0.042099494
0.55452347 0.15572891 0.042081617
0.55450988 0.1572043 0.042063735
0.55449623 0.15867968 0.042045858
0.55448264 0.16015507 0.042027976
0.55446905 0.16163045 0.042010099
0.55445546 0.16310585 0.041992217
0.55444187 0.16458124 0.04197434
0.55442828 0.16605662 0.041956458
0.55441469 0.16753201 0.041938581
0.5544011 0.16900739 0.041920699
0.55438751 0.17048278 0.041902822
0.55437392 0.17195816 0.04188494
0.55436027 0.17343356 0.041867062
0.55434668 0.17490895 0.041849181
0.55433309 0.17638433 0.041831303
0.5543195 0.17785972 0.041813422
0.55272698 0.17948963 0.040556181
0.55271333 0.1809686 0.040538259
0.55269969 0.18244757 0.040520336
0.5526861 0.18392652 0.040502414
0.55267245 0.18540549 0.040484492
0.5526588 0.18688445 0.040466569
0.55264521 0.18836342 0.040448647
0.55263156 0.18984237 0.040430725
0.55261791 0.19132134 0.040412799
0.55260432 0.1928003 0.040394876
0.55259067 0.19427927 0.040376954
0.55257702 0.19575824 0.040359031
0.55256343 0.19723719 0.040341109
0.55412918 0.19851512 0.041563109
0.55411559 0.19999051 0.041545231
0.55410194 0.2014659 0.04152735
0.55408835 0.20294128 0.041509472
0.55249524 0.20463201 0.040251493
0.55248165 0.20611097 0.040233571
0.552468 0.20758994 0.040215649
0.55403399 0.20884283 0.041437954
0.5540204 0.21031822 0.041420072
0.55400681 0.2117936 0.041402195
0.55399323 0.213269 0.041384313
0.55397964 0.21474437 0.041366436
0.55396599 0.21621977 0.041348554
0.5539524 0.21769515 0.041330677
0.55393881 0.21917054 0.041312799
