# .PCD v0.7 - Point Cloud Data file format
VERSION 0.7
FIELDS x y z
SIZE 4 4 4
TYPE F F F
COUNT 1 1 1
WIDTH 1392
HEIGHT 1
VIEWPOINT 0 0 0 1 0 0 0
POINTS 1392
DATA ascii
0.45900807 0.28462467 0.049489118
0.45899341 0.2862145 0.049469851
0.45897877 0.28780434 0.049450584
0.45896411 0.28939417 0.049431317
0.45894945 0.290984 0.049412049
0.45893481 0.29257387 0.049392786
0.45892015 0.2941637 0.049373519
0.45890552 0.29575354 0.049354251
0.45889086 0.29734337 0.049334984
0.45719624 0.29934567 0.048182484
0.45718157 0.30093911 0.048163176
0.45716688 0.30253252 0.048143864
0.45715219 0.30412593 0.048124555
0.4571375 0.30571938 0.048105244
0.45712283 0.30731279 0.048085935
0.45710814 0.3089062 0.048066624
0.45709345 0.31049961 0.048047315
0.45707878 0.31209302 0.048028003
0.45706409 0.31368646 0.048008695
0.4570494 0.31527987 0.047989383
0.45703474 0.31687328 0.047970075
0.45870039 0.31801131 0.049084522
0.45868576 0.31960115 0.049065255
0.45867109 0.32119098 0.049045987
0.45865643 0.32278085 0.04902672
0.4586418 0.32437068 0.049007453
0.45862713 0.32596052 0.04898819
0.4586125 0.32755035 0.048968922
0.45859784 0.32914022 0.048949655
0.45858318 0.33073005 0.048930388
0.45856854 0.33231989 0.048911121
0.45855388 0.33390972 0.048891854
0.46022001 0.33500484 0.05000684
0.46020541 0.33659109 0.049987614
0.46019077 0.33817735 0.049968392
0.46017617 0.33976361 0.049949169
0.46016154 0.34134987 0.049929947
0.46014693 0.34293613 0.049910724
0.4601323 0.34452242 0.049891498
0.4601177 0.34610868 0.049872275
0.46010306 0.34769493 0.049853053
0.45840737 0.34980813 0.048699189
0.45839274 0.35139796 0.048679926
0.45837808 0.3529878 0.048660658
0.45836341 0.35457766 0.048641391
0.45834878 0.35616747 0.048622124
0.46001536 0.35721251 0.049737714
0.46000075 0.35879877 0.049718492
0.45998612 0.36038503 0.049699269
0.45997152 0.36197132 0.049680043
0.45995688 0.36355758 0.049660821
0.45994228 0.36514384 0.049641598
0.45992765 0.36673009 0.049622376
0.45991305 0.36831635 0.049603153
0.45989841 0.36990264 0.049583931
0.4435311 -0.09941379 0.03938761
0.44351605 -0.097781017 0.039367825
0.443501 -0.096148267 0.03934804
0.44348595 -0.09451551 0.039328251
0.44347093 -0.092882738 0.039308466
0.44345587 -0.091249987 0.039288677
0.44344082 -0.089617215 0.039268892
0.44342577 -0.087984465 0.039249104
0.44341072 -0.086351693 0.039229318
0.44339567 -0.084718935 0.039209533
0.44338062 -0.08308617 0.039189745
0.4433656 -0.081453413 0.03916996
0.44168073 -0.080248713 0.038024466
0.44166565 -0.078612387 0.038004637
0.44332045 -0.076555133 0.039110597
0.4433054 -0.074922368 0.039090812
0.44329035 -0.07328961 0.039071023
0.4432753 -0.071656846 0.039051238
0.44326025 -0.070024088 0.039031453
0.44324523 -0.068391316 0.039011665
0.44323018 -0.066758566 0.03899188
0.44321513 -0.065125793 0.038972091
0.44320008 -0.063493043 0.038952306
0.44569036 -0.061277211 0.040621825
0.44316998 -0.060227517 0.038912732
0.44315493 -0.05859476 0.038892947
0.44313988 -0.056961991 0.038873158
0.44312486 -0.055329237 0.038853373
0.44310981 -0.053696468 0.038833585
0.44309476 -0.052063715 0.0388138
0.44307971 -0.050430942 0.038794011
0.44306466 -0.048798189 0.038774226
0.44304961 -0.04716542 0.038754437
0.44303456 -0.045532666 0.038734652
0.44301954 -0.043899897 0.038714867
0.44300449 -0.04226714 0.038695078
0.44298944 -0.040634386 0.038675293
0.44297439 -0.039001618 0.038655505
0.44295934 -0.037368864 0.03863572
0.44294429 -0.035736091 0.038615931
0.4454354 -0.03361148 0.040286556
0.44542041 -0.031984072 0.040266834
0.44540542 -0.030356683 0.040247113
0.4453904 -0.028729292 0.040227391
0.44537541 -0.027101887 0.040207669
0.44703132 -0.025164461 0.041315082
0.44701636 -0.023540646 0.041295405
0.4470014 -0.021916823 0.041275725
0.44698644 -0.020293001 0.041256048
0.44697148 -0.018669186 0.041236371
0.44946316 -0.016607143 0.042907752
0.44944823 -0.014988684 0.042888138
0.44943333 -0.013370225 0.042868525
0.44941843 -0.011751766 0.042848911
0.44940349 -0.010133316 0.042829297
0.44938859 -0.0085148569 0.042809684
0.44937366 -0.0068964059 0.04279007
0.44935876 -0.0052779475 0.042770457
0.44934383 -0.0036594963 0.042750847
0.44932893 -0.0020410379 0.042731233
0.449314 -0.00042258677 0.042711619
0.4492991 0.0011958643 0.042692006
0.4492842 0.0028143229 0.042672392
0.44926926 0.0044327737 0.042652778
0.44925436 0.0060512326 0.042633165
0.44923943 0.0076696835 0.042613551
0.44922453 0.0092881424 0.042593937
0.4492096 0.010906593 0.042574324
0.4491947 0.012525052 0.042554714
0.44917977 0.014143502 0.0425351
0.44916487 0.015761962 0.042515486
0.44914997 0.017380413 0.042495873
0.44913504 0.018998863 0.042476259
0.44912013 0.020617321 0.042456646
0.45077708 0.02244208 0.043565411
0.45076218 0.024056954 0.043545842
0.45074731 0.02567183 0.043526273
0.45073244 0.027286712 0.043506704
0.45071754 0.028901588 0.043487132
0.45070267 0.030516462 0.043467563
0.4506878 0.032131344 0.043447994
0.45067289 0.03374622 0.043428425
0.45065802 0.035361104 0.043408852
0.45231536 0.037150096 0.044518106
0.45230049 0.038761396 0.044498578
0.45228565 0.040372699 0.04447905
0.45227081 0.041983999 0.044459525
0.45225596 0.043595299 0.044439998
0.45224109 0.045206606 0.044420473
0.45222625 0.046817906 0.044400945
0.45221141 0.048429206 0.044381417
0.45219657 0.05004051 0.044361893
0.4546904 0.051864699 0.046036117
0.45467559 0.053470634 0.046016656
0.4546608 0.055076573 0.045997195
0.45464599 0.056682508 0.04597773
0.45463121 0.058288444 0.045958269
0.4546164 0.059894379 0.045938808
0.45460159 0.061500315 0.045919348
0.4545868 0.063106246 0.045899887
0.45457199 0.064712182 0.045880426
0.45455721 0.066318125 0.045860961
0.4545424 0.06792406 0.0458415
0.45452762 0.069529995 0.045822039
0.4545128 0.071135931 0.045802578
0.45449799 0.072741866 0.045783117
0.45448321 0.074347802 0.045763653
0.45195898 0.075821325 0.044049468
0.45194414 0.077432625 0.04402994
0.45443881 0.079165608 0.04570527
0.45442402 0.080771551 0.045685809
0.45440921 0.082377486 0.045666348
0.4543944 0.083983421 0.045646884
0.45437962 0.085589357 0.045627423
0.45436481 0.087195292 0.045607962
0.45435002 0.088801228 0.045588501
0.45433521 0.090407163 0.04556904
0.4543204 0.092013098 0.045549579
0.45430562 0.093619034 0.045530114
0.45429081 0.095224969 0.045510653
0.45427603 0.096830912 0.045491192
0.45426121 0.098436847 0.045471732
0.45424643 0.10004278 0.045452271
0.45423162 0.10164872 0.04543281
0.45421681 0.10325465 0.045413345
0.45420203 0.10486059 0.045393884
0.45418721 0.10646652 0.045374423
0.45417243 0.10807246 0.045354962
0.45415762 0.1096784 0.045335501
0.45414284 0.11128433 0.045316041
0.45412803 0.11289027 0.045296576
0.45411322 0.11449621 0.045277115
0.45409843 0.11610214 0.045257654
0.45408362 0.11770808 0.045238193
0.45406884 0.11931401 0.045218732
0.45405403 0.12091995 0.045199268
0.45403925 0.12252589 0.045179807
0.45402443 0.12413182 0.045160346
0.45400962 0.12573776 0.045140885
0.45399484 0.1273437 0.045121424
0.45565411 0.12891987 0.046233241
0.45563936 0.13052224 0.046213824
0.45562458 0.13212459 0.046194404
0.45560983 0.13372695 0.046174988
0.45559505 0.13532931 0.046155568
0.45558029 0.13693167 0.046136152
0.45556554 0.13853404 0.046116732
0.45555076 0.14013639 0.046097316
0.45553601 0.14173876 0.046077896
0.45552123 0.14334111 0.04605848
0.45550647 0.14494348 0.04603906
0.45549169 0.14654583 0.046019644
0.45547694 0.14814819 0.046000224
0.45546216 0.14975055 0.045980804
0.45544741 0.15135291 0.045961387
0.45543262 0.15295526 0.045941968
0.45709243 0.15447065 0.047054496
0.45707768 0.15606943 0.04703512
0.45706296 0.15766822 0.047015745
0.45537356 0.1593647 0.045864295
0.4553588 0.16096707 0.045844879
0.45534402 0.16256942 0.045825459
0.45532927 0.16417179 0.045806043
0.45531452 0.16577414 0.045786623
0.45529974 0.1673765 0.045767207
0.45528498 0.16897886 0.045747787
0.4552702 0.17058122 0.045728367
0.45525545 0.17218359 0.045708951
0.45524067 0.17378594 0.045689531
0.45522591 0.17538831 0.045670114
0.45521113 0.17699066 0.045650695
0.45519638 0.17859302 0.045631278
0.4551816 0.18019538 0.045611858
0.45516685 0.18179773 0.045592442
0.45515206 0.18340009 0.045573022
0.45513731 0.18500245 0.045553606
0.45512253 0.18660481 0.045534186
0.45510778 0.18820716 0.04551477
0.45509303 0.18980953 0.04549535
0.45675355 0.19124265 0.046608873
0.45673883 0.19284143 0.046589497
0.45672411 0.19444022 0.046570126
0.45670936 0.19603899 0.046550751
0.45669463 0.19763778 0.046531375
0.45667991 0.19923656 0.046512
0.45666516 0.20083535 0.046492625
0.45665044 0.20243412 0.04647325
0.45663571 0.20403291 0.046453875
0.45662096 0.20563169 0.046434499
0.45660624 0.20723048 0.046415124
0.45659149 0.20882925 0.046395749
0.45657676 0.21042804 0.046376374
0.45656204 0.21202682 0.046357002
0.45654729 0.21362561 0.046337627
0.45653257 0.21522439 0.046318252
0.45651785 0.21682316 0.046298876
0.45650309 0.21842195 0.046279501
0.45900229 0.2196703 0.047960743
0.45898759 0.22126371 0.047941435
0.45897293 0.22285713 0.047922123
0.45895824 0.22445056 0.047902815
0.45894355 0.22604397 0.047883503
0.45892888 0.2276374 0.047864195
0.45891419 0.22923079 0.047844887
0.4588995 0.23082422 0.047825575
0.45888481 0.23241764 0.047806267
0.46054634 0.23374525 0.048921067
0.46053168 0.2353351 0.0489018
0.46051705 0.23692492 0.048882533
0.46050239 0.23851477 0.048863269
0.46048775 0.2401046 0.048844002
0.46047309 0.24169445 0.048824735
0.46045843 0.24328429 0.048805468
0.46044379 0.24487412 0.048786201
0.46042913 0.24646397 0.048766937
0.4604145 0.24805382 0.04874767
0.46039984 0.24964365 0.048728403
0.46038517 0.25123349 0.048709136
0.46037054 0.25282332 0.048689868
0.46035588 0.25441319 0.048670605
0.46034124 0.25600302 0.048651338
0.46032658 0.25759286 0.04863207
0.46031192 0.25918269 0.048612803
0.46029729 0.26077253 0.048593536
0.46028262 0.26236239 0.048574269
0.46026799 0.26395223 0.048555005
0.46025333 0.26554206 0.048535738
0.46023867 0.26713189 0.048516471
0.46022403 0.26872173 0.048497204
0.46020937 0.27031159 0.048477937
0.46019474 0.27190143 0.048458673
0.46018007 0.27349126 0.048439406
0.46016541 0.2750811 0.048420139
0.46015078 0.27667096 0.048400871
0.46013612 0.2782608 0.048381604
0.4617987 0.27948108 0.049497738
0.46178406 0.28106734 0.049478512
0.46176946 0.28265363 0.04945929
0.46175483 0.28423989 0.049440067
0.46174023 0.28582615 0.049420845
0.46172559 0.28741241 0.049401622
0.46171099 0.28899866 0.0493824
0.46169636 0.29058495 0.049363174
0.46168175 0.29217121 0.049343951
0.46166712 0.29375747 0.049324729
0.46165252 0.29534373 0.049305506
0.46163788 0.29693002 0.049286284
0.46162328 0.29851624 0.049267061
0.46160865 0.30010253 0.049247835
0.46159405 0.30168879 0.049228612
0.46157941 0.30327505 0.04920939
0.46156481 0.30486131 0.049190167
0.45987239 0.30687794 0.04803481
0.45985776 0.30846778 0.048015542
0.4598431 0.31005761 0.047996275
0.45982847 0.31164744 0.047977008
0.4598138 0.31323728 0.047957741
0.45979914 0.31482714 0.047938477
0.45978451 0.31641695 0.04791921
0.46144786 0.31755143 0.04903638
0.46143326 0.31913769 0.049017157
0.46141863 0.32072398 0.048997935
0.46140403 0.32231021 0.048978712
0.46138939 0.3238965 0.04895949
0.45969659 0.32595602 0.047803611
0.45968196 0.32754585 0.047784343
0.46134555 0.32865527 0.048901819
0.46133092 0.33024156 0.048882596
0.46131632 0.33182782 0.048863374
0.46130168 0.33341408 0.048844151
0.46128708 0.33500034 0.048824925
0.46127245 0.33658659 0.048805702
0.46125785 0.33817285 0.04878648
0.46124321 0.33975911 0.048767257
0.46122861 0.34134537 0.048748035
0.46121398 0.34293166 0.048728812
0.46119937 0.34451792 0.048709586
0.46118474 0.34610417 0.048690364
0.46117014 0.34769043 0.048671141
0.4611555 0.34927672 0.048651919
0.4611409 0.35086295 0.048632696
0.46112627 0.35244924 0.04861347
0.46111166 0.3540355 0.048594248
0.46109703 0.35562176 0.048575025
0.46108243 0.35720804 0.048555803
0.4610678 0.3587943 0.04853658
0.46105319 0.36038053 0.048517358
0.46103856 0.36196682 0.048498131
0.46102396 0.36355308 0.048478909
0.46352777 0.36429533 0.050166246
0.4635132 0.36587623 0.050147086
0.46349862 0.36745715 0.050127931
0.46348405 0.36903805 0.050108772
0.46346948 0.37061891 0.050089613
0.44712999 -0.098711923 0.03986286
0.447115 -0.097084537 0.039843138
0.44710001 -0.095457144 0.039823417
0.44708502 -0.093829736 0.039803695
0.44707 -0.092202343 0.039783973
0.44705501 -0.090574957 0.039764252
0.44704002 -0.088947549 0.03974453
0.44702503 -0.087320156 0.039724808
0.44701004 -0.085692756 0.039705086
0.44699502 -0.084065363 0.039685365
0.44698003 -0.08243797 0.039665643
0.44696504 -0.080810569 0.039645921
0.44695005 -0.079183176 0.0396262
0.44693506 -0.077555783 0.039606478
0.44692004 -0.075928383 0.039586756
0.44690505 -0.07430099 0.039567035
0.44689006 -0.072673596 0.039547313
0.44687507 -0.071046196 0.039527591
0.44686005 -0.069418803 0.03950787
0.44684505 -0.067791395 0.039488148
0.44683006 -0.066164002 0.03946843
0.44681507 -0.064536616 0.039448708
0.44680008 -0.062909208 0.039428987
0.44678506 -0.061281819 0.039409265
0.44677007 -0.059654426 0.039389543
0.44675508 -0.058027022 0.039369822
0.44674009 -0.056399632 0.0393501
0.4467251 -0.054772224 0.039330378
0.44671008 -0.053144835 0.039310656
0.44669509 -0.051517442 0.039290935
0.4466801 -0.049890038 0.039271213
0.44666511 -0.048262648 0.039251491
0.44665012 -0.046635255 0.03923177
0.4466351 -0.045007851 0.039212048
0.44662011 -0.043380462 0.039192326
0.44660512 -0.041753054 0.039172605
0.44659013 -0.040125664 0.039152883
0.44657511 -0.038498271 0.039133161
0.44656011 -0.036870867 0.03911344
0.44654512 -0.035243478 0.039093718
0.44653013 -0.033616085 0.039073996
0.44818351 -0.031664331 0.040183902
0.44816855 -0.030040516 0.040164221
0.44815356 -0.028416701 0.040144544
0.44813859 -0.026792871 0.040124867
0.44812363 -0.025169056 0.040105186
0.45061153 -0.023085535 0.0417803
0.4505966 -0.021467084 0.041760691
0.4505817 -0.019848626 0.041741077
0.45056677 -0.018230174 0.041721463
0.45055187 -0.016611723 0.04170185
0.45053697 -0.014993264 0.041682236
0.45052204 -0.013374806 0.041662622
0.45050713 -0.011756347 0.041643009
0.4504922 -0.010137897 0.041623395
0.4504773 -0.0085194381 0.041603781
0.45046237 -0.0069009871 0.041584168
0.45044747 -0.0052825287 0.041564558
0.45043254 -0.0036640775 0.041544944
0.45041764 -0.0020456188 0.04152533
0.45040274 -0.00042716778 0.041505717
0.45038781 0.0011912833 0.041486103
0.4503729 0.0028097418 0.041466489
0.45202708 0.0046738512 0.042577457
0.45201218 0.0062887263 0.042557888
0.45199731 0.0079036094 0.042538315
0.45198244 0.0095184846 0.042518746
0.45196754 0.01113336 0.042499177
0.45028341 0.012520471 0.041348811
0.45026851 0.014138922 0.041329198
0.45025358 0.01575738 0.041309584
0.45023867 0.017375831 0.04128997
0.45189315 0.019207751 0.042401329
0.45187825 0.020822626 0.042381756
0.45186338 0.022437509 0.042362187
0.45184851 0.024052383 0.042342618
0.45183361 0.025667259 0.042323045
0.45348832 0.027477732 0.043434706
0.45347348 0.02908903 0.043415178
0.45345864 0.03070033 0.04339565
0.45344377 0.03231163 0.043376125
0.45342892 0.033922937 0.043356597
0.45341408 0.035534237 0.043337069
0.45339924 0.037145536 0.043317545
0.4533844 0.038756832 0.043298017
0.45336953 0.040368136 0.043278493
0.45335469 0.04197944 0.043258965
0.45333984 0.043590739 0.043239437
0.453325 0.045202047 0.043219913
0.45331013 0.046813346 0.043200385
0.45329529 0.048424646 0.043180857
0.45578548 0.050254215 0.044859011
0.45577067 0.05186015 0.04483955
0.45575589 0.053466085 0.044820089
0.45574108 0.055072024 0.044800624
0.45572627 0.05667796 0.044781163
0.45571148 0.058283899 0.044761702
0.45736694 0.060013887 0.045874327
0.45735216 0.061616246 0.045854911
0.45566708 0.063101701 0.04470332
0.4556523 0.064707637 0.044683855
0.45563748 0.06631358 0.044664394
0.45562267 0.067919515 0.044644933
0.45560789 0.06952545 0.044625472
0.45559308 0.071131386 0.044606011
0.4555783 0.072737321 0.04458655
0.45556349 0.074343257 0.044567086
0.4555487 0.075949192 0.044547625
0.45553389 0.077555127 0.044528164
0.45551908 0.079161063 0.044508703
0.4555043 0.080767006 0.044489242
0.45548949 0.082372941 0.044469781
0.45714545 0.084049277 0.045583054
0.45713067 0.085651636 0.045563638
0.45711592 0.087253995 0.045544218
0.45710117 0.088856354 0.045524802
0.45708638 0.090458713 0.045505382
0.45707163 0.092061073 0.045485966
0.45705685 0.093663432 0.045466546
0.4570421 0.095265791 0.04544713
0.45702732 0.09686815 0.04542771
0.45701256 0.098470517 0.045408294
0.45699778 0.10007288 0.045388874
0.45698303 0.10167523 0.045369454
0.45696825 0.10327759 0.045350038
0.4569535 0.10487995 0.045330618
0.45693871 0.10648231 0.045311201
0.45525271 0.10806791 0.044158395
0.4552379 0.10967385 0.044138934
0.45522311 0.11127979 0.04411947
0.45687965 0.11289175 0.045233529
0.45686489 0.11449411 0.045214109
0.45685014 0.11609647 0.045194693
0.45683536 0.11769883 0.045175273
0.45682061 0.11930119 0.045155857
0.45680583 0.12090354 0.045136437
0.45679107 0.1225059 0.045117021
0.45677629 0.12410826 0.045097601
0.45676154 0.12571062 0.045078181
0.45674676 0.12731299 0.045058765
0.456732 0.12891534 0.045039345
0.45838889 0.13048437 0.046153877
0.45837417 0.13208316 0.046134502
0.45835945 0.13368194 0.046115126
0.4583447 0.13528073 0.046095751
0.45832998 0.1368795 0.046076376
0.45831522 0.13847829 0.046057004
0.4583005 0.14007707 0.046037629
0.45828578 0.14167586 0.046018254
0.45827103 0.14327464 0.045998879
0.4582563 0.14487343 0.045979504
0.45824158 0.1464722 0.045960128
0.45822683 0.14807099 0.045940753
0.45821211 0.14966978 0.045921378
0.45819739 0.15126856 0.045902003
0.45818263 0.15286733 0.045882627
0.45816791 0.15446612 0.045863256
0.45815316 0.1560649 0.045843881
0.45813844 0.15766369 0.045824505
0.45812371 0.15926246 0.04580513
0.45810896 0.16086125 0.045785755
0.45809424 0.16246003 0.04576638
0.45807952 0.16405882 0.045747004
0.45806476 0.16565759 0.045727629
0.45805004 0.16725639 0.045708254
0.45803532 0.16885516 0.045688879
0.45802057 0.17045395 0.045669507
0.45800585 0.17205273 0.045650132
0.45799109 0.17365152 0.045630757
0.45797637 0.17525029 0.045611382
0.45796165 0.17684908 0.045592006
0.4579469 0.17844786 0.045572631
0.45793217 0.18004665 0.045553256
0.45791745 0.18164542 0.045533881
0.4579027 0.18324421 0.045514505
0.45788798 0.18484299 0.04549513
0.45787326 0.18644178 0.045475755
0.4578585 0.18804055 0.045456383
0.46035314 0.18939085 0.04714039
0.46033847 0.19098428 0.047121078
0.46032378 0.19257769 0.04710177
0.46030909 0.1941711 0.047082458
0.46029443 0.19576453 0.04706315
0.46027973 0.19735794 0.047043838
0.46026504 0.19895136 0.047024529
0.46025035 0.20054477 0.047005218
0.46023569 0.20213819 0.046985909
0.46022099 0.20373161 0.046966597
0.4602063 0.20532504 0.046947289
0.46019164 0.20691845 0.046927981
0.46185023 0.20830329 0.048044752
0.46183556 0.20989312 0.048025489
0.46182093 0.21148297 0.048006222
0.46180627 0.21307281 0.047986954
0.4617916 0.21466266 0.047967687
0.46177697 0.21625249 0.04794842
0.46176231 0.21784234 0.047929157
0.46174768 0.21943218 0.047909889
0.46173301 0.22102201 0.047890622
0.46171835 0.22261184 0.047871355
0.46170372 0.22420169 0.047852088
0.46168905 0.22579154 0.047832821
0.46167442 0.22738138 0.047813557
0.46165976 0.22897121 0.04779429
0.4616451 0.23056106 0.047775023
0.46163046 0.2321509 0.047755755
0.4616158 0.23374075 0.047736488
0.46160117 0.2353306 0.047717225
0.46158651 0.23692042 0.047697958
0.46157184 0.23851027 0.04767869
0.46155721 0.2401001 0.047659423
0.46154255 0.24168995 0.047640156
0.46152791 0.24327978 0.047620893
0.46151325 0.24486962 0.047601625
0.4631727 0.24616505 0.048719518
0.4631581 0.24775131 0.048700295
0.46314347 0.24933758 0.048681069
0.46312886 0.25092384 0.048661847
0.46311423 0.2525101 0.048642624
0.46142533 0.25440869 0.047486026
0.4614107 0.25599852 0.047466759
0.46307039 0.25726891 0.048584953
0.46305576 0.25885516 0.04856573
0.46304116 0.26044142 0.048546508
0.46135208 0.26235789 0.047389694
0.46133745 0.26394773 0.047370426
0.46132278 0.26553756 0.047351159
0.46130815 0.26712739 0.047331892
0.46296805 0.26837274 0.048450392
0.46295345 0.269959 0.048431169
0.46293885 0.27154529 0.048411947
0.46292421 0.27313155 0.048392724
0.4612349 0.2750766 0.04723556
0.46122023 0.27666646 0.047216292
0.46288037 0.27789032 0.048335053
0.46286574 0.27947661 0.048315831
0.46285114 0.28106287 0.048296608
0.4628365 0.28264913 0.048277386
0.4628219 0.28423539 0.048258159
0.46280727 0.28582168 0.048238937
0.46279266 0.2874079 0.048219714
0.46529049 0.28840768 0.04990793
0.46527591 0.28998861 0.049888771
0.46526134 0.2915695 0.049869612
0.46524677 0.2931504 0.049850453
0.46523219 0.29473129 0.049831297
0.46521762 0.29631218 0.049812138
0.46520308 0.29789311 0.049792979
0.4651885 0.299474 0.04977382
0.46517393 0.30105489 0.049754664
0.46515936 0.30263579 0.049735505
0.46514478 0.30421671 0.049716346
0.46513021 0.30579758 0.049697191
0.46511567 0.3073785 0.049678031
0.46258801 0.30961561 0.047950592
0.46508652 0.31054029 0.049639713
0.46255878 0.31278816 0.047912143
0.46254414 0.31437442 0.047892921
0.46252954 0.31596068 0.047873698
0.46251491 0.31754693 0.047854476
0.4625003 0.31913322 0.047835249
0.46248567 0.32071948 0.047816027
0.46247107 0.32230574 0.047796804
0.46245643 0.323892 0.047777582
0.46244183 0.32547826 0.047758359
0.4624272 0.32706451 0.047739137
0.4624126 0.3286508 0.047719911
0.46239796 0.33023706 0.047700688
0.46489713 0.331092 0.049390659
0.46488255 0.33267286 0.0493715
0.46486798 0.33425379 0.04935234
0.46485344 0.33583468 0.049333185
0.46483886 0.33741558 0.049314026
0.46482429 0.33899647 0.049294867
0.46480972 0.34057736 0.049275711
0.46479514 0.34215826 0.049256552
0.46478057 0.34373918 0.049237393
0.46476603 0.34532008 0.049218234
0.46475145 0.34690097 0.049199078
0.46473688 0.34848186 0.049179919
0.46472231 0.35006276 0.04916076
0.46470773 0.35164368 0.049141601
0.46469316 0.35322458 0.049122445
0.46216407 0.35561725 0.047393117
0.46214947 0.35720354 0.047373895
0.46464947 0.35796729 0.049064972
0.4646349 0.35954815 0.049045812
0.46462032 0.36112905 0.049026653
0.46460575 0.36270997 0.049007494
0.46459121 0.36429086 0.048988339
0.46457663 0.36587176 0.048969179
0.46456206 0.36745268 0.04895002
0.46622416 0.36846015 0.050071407
0.46453291 0.37061444 0.048911706
0.44990429 -0.099869348 0.039800499
0.44988933 -0.098245531 0.039780822
0.44987437 -0.096621715 0.039761141
0.44985941 -0.094997898 0.039741464
0.44984445 -0.093374074 0.039721787
0.44982946 -0.091750257 0.039702106
0.4498145 -0.09012644 0.039682429
0.44979954 -0.088502608 0.039662749
0.44978458 -0.086878799 0.039643072
0.44976962 -0.085254982 0.039623395
0.44975466 -0.08363115 0.039603714
0.44973969 -0.082007334 0.039584037
0.44972473 -0.080383524 0.03956436
0.44970977 -0.078759693 0.039544679
0.44969481 -0.077135876 0.039525002
0.44967982 -0.075512059 0.039505325
0.44966486 -0.073888235 0.039485645
0.4496499 -0.072264418 0.039465968
0.44963494 -0.070640601 0.039446291
0.44961998 -0.069016792 0.03942661
0.44960502 -0.06739296 0.039406933
0.44959006 -0.065769143 0.039387256
0.4495751 -0.064145327 0.039367575
0.44956014 -0.062521502 0.039347898
0.44954515 -0.060897686 0.039328221
0.44953018 -0.059273869 0.039308541
0.44951522 -0.057650041 0.039288864
0.44950026 -0.056026224 0.039269187
0.4494853 -0.054402411 0.039249506
0.44947034 -0.052778579 0.039229829
0.44945538 -0.051154766 0.039210152
0.44944042 -0.049530949 0.039190471
0.44942546 -0.047907121 0.039170794
0.4494105 -0.046283305 0.039151113
0.44939551 -0.044659492 0.039131436
0.44938055 -0.043035675 0.03911176
0.44936559 -0.041411847 0.039092079
0.44935063 -0.03978803 0.039072402
0.44933566 -0.038164217 0.039052725
0.4493207 -0.036540385 0.039033044
0.44930574 -0.034916572 0.039013367
0.44929078 -0.033292755 0.03899369
0.44927582 -0.031668928 0.038974009
0.44926083 -0.030045113 0.038954332
0.45174497 -0.027945485 0.04063325
0.45173007 -0.026327033 0.040613636
0.45171514 -0.024708567 0.040594023
0.45170024 -0.023090117 0.040574409
0.45168531 -0.021471664 0.040554799
0.45167041 -0.019853206 0.040535185
0.45165548 -0.018234756 0.040515572
0.45164058 -0.016616303 0.040495958
0.45162565 -0.014997846 0.040476345
0.45161074 -0.013379388 0.040456731
0.45159581 -0.011760929 0.040437117
0.45158091 -0.010142477 0.040417504
0.45156601 -0.0085240193 0.04039789
0.45155108 -0.0069055678 0.040378276
0.45153618 -0.0052871094 0.040358666
0.45152125 -0.0036686584 0.040339053
0.45317289 -0.001790228 0.041452505
0.45315802 -0.00017535276 0.041432936
0.45314315 0.0014395225 0.041413363
0.45312825 0.0030544051 0.041393794
0.45311338 0.0046692803 0.041374225
0.45309848 0.0062841554 0.041354656
0.4530836 0.0078990385 0.041335084
0.45306873 0.0095139137 0.041315515
0.45305383 0.011128789 0.041295946
0.45303896 0.012743671 0.041276377
0.45302409 0.014358547 0.041256804
0.45300919 0.015973423 0.041237235
0.45299432 0.017588304 0.041217666
0.45297945 0.01920318 0.041198097
0.45296454 0.020818055 0.041178524
0.45294967 0.022432938 0.041158956
0.45460191 0.024250565 0.04227319
0.45458707 0.025861863 0.042253666
0.45457223 0.02747317 0.042234138
0.45705813 0.029372504 0.043915451
0.45704335 0.030978439 0.043895986
0.45702854 0.032584377 0.043876525
0.45701376 0.034190312 0.043857064
0.45699894 0.035796247 0.043837603
0.45698416 0.037402183 0.043818142
0.45696935 0.039008118 0.043798681
0.45695454 0.040614054 0.043779217
0.45693976 0.042219989 0.043759756
0.45692495 0.043825928 0.043740295
0.45691016 0.045431864 0.043720834
0.45689535 0.047037799 0.043701373
0.45688057 0.048643734 0.043681912
0.45686576 0.05024967 0.043662447
0.45685095 0.051855605 0.043642987
0.45850387 0.053599916 0.0447581
0.45848912 0.055202276 0.044738684
0.45847434 0.056804635 0.044719264
0.45845959 0.05840699 0.044699844
0.45844483 0.060009349 0.044680428
0.45843005 0.061611712 0.044661008
0.4584153 0.063214071 0.044641592
0.45840052 0.06481643 0.044622172
0.45838577 0.066418789 0.044602755
0.45670298 0.06791497 0.04344837
0.45668817 0.069520906 0.043428909
0.45667335 0.071126841 0.043409448
0.45665857 0.072732776 0.043389987
0.45664376 0.074338712 0.043370526
0.45662898 0.075944647 0.043351065
0.45661417 0.077550583 0.043331601
0.45826763 0.079237662 0.044447407
0.45825285 0.080840029 0.044427991
0.4582381 0.08244238 0.044408571
0.45822334 0.08404474 0.044389155
0.45820856 0.085647099 0.044369735
0.45819381 0.087249465 0.044350319
0.45817903 0.088851824 0.044330899
0.45816427 0.090454184 0.044311482
0.45814949 0.092056543 0.044292063
0.45813474 0.093658902 0.044272646
0.45811996 0.095261261 0.044253226
0.45810521 0.09686362 0.04423381
0.45809042 0.098465979 0.04421439
0.45807567 0.10006834 0.04419497
0.45806089 0.1016707 0.044175554
0.45804614 0.10327306 0.044156134
0.45803136 0.10487542 0.044136718
0.4580166 0.10647777 0.044117298
0.45800182 0.10808013 0.044097882
0.45798707 0.10968249 0.044078462
0.45797232 0.11128485 0.044059046
0.45795754 0.11288721 0.044039626
0.45794278 0.11448957 0.044020209
0.457928 0.11609193 0.04400079
0.45791325 0.11769429 0.043981373
0.45789847 0.11929665 0.043961953
0.45788372 0.12089901 0.043942533
0.45786893 0.12250137 0.043923117
0.45952332 0.12408473 0.045040142
0.45950857 0.1256835 0.045020767
0.45949385 0.12728229 0.045001391
0.45947909 0.12888107 0.044982016
0.45946437 0.13047986 0.044962641
0.45944965 0.13207863 0.044943266
0.4594349 0.13367742 0.04492389
0.46192425 0.13521014 0.046609685
0.46190956 0.13680355 0.046590377
0.4618949 0.13839698 0.046571065
0.46188021 0.13999039 0.046551757
0.46186551 0.14158382 0.046532445
0.46185082 0.14317723 0.046513136
0.46183616 0.14477065 0.046493825
0.46182147 0.14636406 0.046474516
0.46180677 0.14795749 0.046455204
0.46179211 0.1495509 0.046435896
0.46177742 0.15114431 0.046416588
0.46176273 0.15273774 0.046397276
0.4634178 0.15424418 0.047515243
0.46340314 0.15583403 0.047495976
0.4633885 0.15742387 0.047476709
0.46337384 0.15901372 0.047457445
0.46335921 0.16060355 0.047438178
0.46334454 0.1621934 0.047418911
0.46332988 0.16378324 0.047399644
0.46331525 0.16537309 0.047380377
0.46330059 0.16696292 0.047361109
0.46328595 0.16855276 0.047341846
0.46327129 0.17014261 0.047322579
0.46325663 0.17173244 0.047303312
0.46324199 0.17332229 0.047284044
0.46322733 0.17491212 0.047264777
0.4632127 0.17650197 0.047245514
0.46319804 0.17809181 0.047226246
0.46318337 0.17968164 0.047206979
0.46316874 0.18127149 0.047187712
0.46315408 0.18286133 0.047168445
0.46313944 0.18445118 0.047149178
0.46312478 0.18604101 0.047129914
0.46311012 0.18763085 0.047110647
0.46309549 0.1892207 0.04709138
0.46308082 0.19081053 0.047072113
0.46306619 0.19240038 0.047052845
0.46305153 0.19399022 0.047033582
0.46303686 0.19558007 0.047014315
0.46302223 0.1971699 0.046995047
0.46300757 0.19875973 0.04697578
0.46299294 0.20034958 0.046956513
0.46297827 0.20193942 0.04693725
0.46296361 0.20352927 0.046917982
0.46294898 0.2051191 0.046898715
0.46293432 0.20670895 0.046879448
0.46291968 0.20829879 0.046860181
0.46290502 0.20988862 0.046840914
0.46456134 0.21126275 0.04796052
0.46454674 0.21284901 0.047941297
0.46453211 0.21443528 0.047922075
0.4645175 0.21602154 0.047902849
0.46450287 0.2176078 0.047883626
0.46448827 0.21919407 0.047864404
0.46447363 0.22078033 0.047845181
0.46445903 0.2223666 0.047825959
0.46444443 0.22395286 0.047806736
0.4644298 0.22553913 0.04778751
0.46441519 0.22712539 0.047768287
0.46440056 0.22871165 0.047749065
0.46438596 0.23029792 0.047729842
0.46437132 0.23188418 0.04771062
0.46435672 0.23347045 0.047691394
0.46434209 0.23505671 0.047672171
0.46432748 0.23664297 0.047652949
0.46431285 0.23822924 0.047633726
0.46429825 0.2398155 0.047614504
0.46428362 0.24140176 0.047595281
0.46426901 0.24298804 0.047576055
0.46425438 0.24457431 0.047556832
0.46423978 0.24616055 0.04753761
0.46422514 0.24774683 0.047518387
0.46421054 0.2493331 0.047499165
0.46419591 0.25091937 0.047479939
0.4641813 0.2525056 0.047460716
0.46416667 0.25409189 0.047441494
0.46415207 0.25567815 0.047422271
0.46413743 0.25726441 0.047403049
0.46412283 0.25885066 0.047383826
0.4641082 0.26043695 0.0473646
0.4640936 0.26202321 0.047345378
0.46407896 0.26360947 0.047326155
0.46406436 0.26519573 0.047306933
0.46404973 0.26678199 0.04728771
0.46403512 0.26836827 0.047268488
0.46402049 0.26995453 0.047249261
0.46400589 0.27154079 0.047230039
0.46399125 0.27312705 0.047210816
0.46397665 0.27471331 0.047191594
0.46396202 0.27629957 0.047172371
0.46394742 0.27788585 0.047153145
0.46393278 0.27947211 0.047133923
0.46391818 0.28105837 0.0471147
0.46641219 0.28207964 0.048806649
0.46639761 0.28366053 0.04878749
0.46638307 0.28524143 0.04876833
0.4663685 0.28682232 0.048749171
0.46802652 0.28801224 0.049871016
0.46801198 0.28958958 0.049851902
0.46799743 0.2911669 0.049832784
0.46798292 0.29274422 0.049813669
0.46796837 0.29432154 0.049794555
0.46795383 0.29589885 0.04977544
0.46793929 0.2974762 0.049756326
0.46792477 0.29905349 0.049737211
0.46791023 0.30063084 0.049718097
0.46789569 0.30220816 0.049698982
0.46788117 0.30378547 0.049679868
0.46786663 0.30536279 0.049660753
0.46785209 0.30694011 0.049641639
0.46783754 0.30851746 0.049622521
0.46782303 0.31009474 0.049603406
0.46780849 0.31167209 0.049584292
0.46779394 0.31324941 0.049565177
0.4677794 0.31482673 0.049546063
0.46776488 0.31640404 0.049526948
0.46775034 0.31798136 0.049507834
0.46606255 0.32002121 0.048346851
0.46604797 0.32160211 0.048327692
0.46603343 0.323183 0.048308536
0.46601886 0.32476389 0.048289377
0.46600428 0.32634482 0.048270218
0.46598971 0.32792571 0.048251059
0.46597514 0.32950661 0.048231903
0.46763405 0.33059996 0.049354915
0.46761951 0.33217728 0.0493358
0.46760499 0.3337546 0.049316686
0.46759045 0.33533192 0.049297571
0.46757591 0.33690923 0.049278457
0.46756139 0.33848658 0.049259342
0.46754685 0.34006387 0.049240228
0.46753231 0.34164122 0.049221113
0.46751776 0.34321854 0.049201995
0.46750325 0.34479585 0.049182881
0.46748871 0.34637317 0.049163766
0.46747416 0.34795049 0.049144652
0.46745962 0.34952784 0.049125537
0.46744511 0.35110515 0.049106423
0.46743056 0.35268247 0.049087308
0.46741602 0.35425979 0.049068194
0.4674015 0.35583714 0.049049079
0.46738696 0.35741442 0.049029965
0.46737242 0.35899174 0.04901085
0.46735787 0.36056909 0.048991732
0.46734336 0.36214641 0.048972618
0.46732882 0.36372373 0.048953503
0.46731427 0.36530104 0.048934389
0.46729973 0.36687839 0.048915274
0.46895945 0.36788231 0.050039325
0.46894494 0.36945605 0.050020255
0.45099661 -0.099873945 0.03859061
0.45098165 -0.098250128 0.038570929
0.45096669 -0.096626312 0.038551252
0.45095173 -0.095002495 0.038531575
0.45093673 -0.093378671 0.038511895
0.45092177 -0.091754854 0.038492218
0.45090681 -0.090131037 0.038472541
0.45089185 -0.088507205 0.03845286
0.45087689 -0.086883396 0.038433183
0.45086193 -0.085259579 0.038413506
0.45334077 -0.082977518 0.040094212
0.45332584 -0.081359059 0.040074598
0.45331094 -0.079740606 0.040054984
0.45329604 -0.078122154 0.040035371
0.4532811 -0.076503702 0.040015757
0.4532662 -0.074885249 0.039996143
0.45325127 -0.073266782 0.03997653
0.45323637 -0.071648337 0.039956916
0.45322144 -0.070029885 0.039937302
0.45320654 -0.068411432 0.039917693
0.45319161 -0.066792965 0.039898079
0.45317671 -0.065174513 0.039878465
0.45316181 -0.06355606 0.039858852
0.45314687 -0.061937612 0.039839238
0.45313197 -0.060319148 0.039819624
0.45311704 -0.058700696 0.039800011
0.45060754 -0.057654634 0.038078975
0.45059258 -0.056030821 0.038059294
0.45057762 -0.054407004 0.038039617
0.45056266 -0.052783176 0.03801994
0.4505477 -0.05115936 0.03800026
0.45053273 -0.049535546 0.037980583
0.45051777 -0.047911715 0.037960906
0.45050278 -0.046287902 0.037941225
0.45298281 -0.044134606 0.039623491
0.45296791 -0.042516153 0.039603878
0.45295298 -0.040897705 0.039584264
0.45293808 -0.039279237 0.039564651
0.45042798 -0.038168814 0.037842836
0.45041302 -0.036544982 0.037823156
0.45289335 -0.034423884 0.039505813
0.45287842 -0.032805432 0.0394862
0.45286351 -0.031186968 0.039466586
0.45284858 -0.029568516 0.039446972
0.45283368 -0.027950065 0.039427359
0.45281875 -0.026331615 0.039407745
0.45446754 -0.024403097 0.040523253
0.45445266 -0.022788206 0.040503681
0.45443776 -0.021173339 0.040484112
0.45442289 -0.019558456 0.040464543
0.45440802 -0.017943582 0.040444974
0.45439312 -0.016328705 0.040425401
0.45437825 -0.014713823 0.040405832
0.45436338 -0.013098948 0.040386263
0.45434847 -0.011484073 0.040366694
0.4543336 -0.0098691899 0.040347122
0.45431873 -0.0082543148 0.040327553
0.45430383 -0.0066394391 0.040307984
0.45428896 -0.0050245565 0.040288415
0.45427409 -0.0034096814 0.040268842
0.45425919 -0.0017947988 0.040249273
0.45590854 7.6490833e-05 0.041365523
0.4558937 0.0016877902 0.041345999
0.45587885 0.0032990896 0.041326471
0.4583604 0.005278918 0.043010805
0.45834562 0.0068848534 0.042991344
0.4558343 0.0081329951 0.04126789
0.45831603 0.010096724 0.042952422
0.45580459 0.011355594 0.041228838
0.45578974 0.0129669 0.04120931
0.4557749 0.0145782 0.041189786
0.45576006 0.016189499 0.041170258
0.45574522 0.017800799 0.041150734
0.45573035 0.019412106 0.041131206
0.45821244 0.021338273 0.042816188
0.45819762 0.022944208 0.042796727
0.45818281 0.024550144 0.042777266
0.45816803 0.026156088 0.042757805
0.45815322 0.027762024 0.042738345
0.45813844 0.029367959 0.042718884
0.45812362 0.030973895 0.042699419
0.45810884 0.032579828 0.042679958
0.45809403 0.034185763 0.042660497
0.45974419 0.035969425 0.043777797
0.45972943 0.037571784 0.043758381
0.45971465 0.039174143 0.043738961
0.4596999 0.040776502 0.043719545
0.45968512 0.042378861 0.043700125
0.45967036 0.043981221 0.043680709
0.45965558 0.045583583 0.043661289
0.45964083 0.047185943 0.043641873
0.45962605 0.048788302 0.043622453
0.4596113 0.050390661 0.043603037
0.45959651 0.05199302 0.043583617
0.45958176 0.053595379 0.0435642
0.45956701 0.055197742 0.04354478
0.45955223 0.056800101 0.043525361
0.46120283 0.058530107 0.044643275
0.46118811 0.060128894 0.0446239
0.46117339 0.061727677 0.044604525
0.45949316 0.063209534 0.043447688
0.45947841 0.064811893 0.043428272
0.45946363 0.066414252 0.043408852
0.45944887 0.068016611 0.043389436
0.45943409 0.06961897 0.043370016
0.45941934 0.071221337 0.0433506
0.45940456 0.072823688 0.04333118
0.45938981 0.074426048 0.043311764
0.45937502 0.076028414 0.043292344
0.45936027 0.077630773 0.043272924
0.45934552 0.079233132 0.043253507
0.45933074 0.080835491 0.043234088
0.45931599 0.082437851 0.043214671
0.4593012 0.08404021 0.043195251
0.46095237 0.085709415 0.0443139
0.46093765 0.087308198 0.044294525
0.4609229 0.088906981 0.04427515
0.46090817 0.090505764 0.044255778
0.46089345 0.092104547 0.044236403
0.4608787 0.09370333 0.044217028
0.46086398 0.095302112 0.044197652
0.46084926 0.096900895 0.044178277
0.4608345 0.098499678 0.044158902
0.46081978 0.10009846 0.044139527
0.46080506 0.10169724 0.044120152
0.46079031 0.10329603 0.044100776
0.46077558 0.10489481 0.044081401
0.46076083 0.10649358 0.04406203
0.46074611 0.10809237 0.044042654
0.46073139 0.10969115 0.044023279
0.46071663 0.11128993 0.044003904
0.46070191 0.11288872 0.043984529
0.46068719 0.1144875 0.043965153
0.46067244 0.11608628 0.043945778
0.46065772 0.11768506 0.043926403
0.46064299 0.11928385 0.043907028
0.46062824 0.12088263 0.043887652
0.46061352 0.12248142 0.043868281
0.46059877 0.1240802 0.043848906
0.46058404 0.12567899 0.04382953
0.46306953 0.12723854 0.045518998
0.46305487 0.12883197 0.045499686
0.46304017 0.13042538 0.045480378
0.46302548 0.13201879 0.045461066
0.46301079 0.13361222 0.045441758
0.46466306 0.13516159 0.046561871
0.46464843 0.13675144 0.046542604
0.46463376 0.13834128 0.046523336
0.4646191 0.13993113 0.046504069
0.46460447 0.14152096 0.046484802
0.4645898 0.1431108 0.046465535
0.46457517 0.14470065 0.046446271
0.46456051 0.14629048 0.046427004
0.46454585 0.14788033 0.046407737
0.46453121 0.14947017 0.04638847
0.46451655 0.15106001 0.046369202
0.46450192 0.15264985 0.046349939
0.46615466 0.15415274 0.04747064
0.46614003 0.15573901 0.047451418
0.46612543 0.15732527 0.047432195
0.4661108 0.15891153 0.047412973
0.46609619 0.1604978 0.04739375
0.46608156 0.16208406 0.047374524
0.46606696 0.16367032 0.047355302
0.46605232 0.16525659 0.047336079
0.46603772 0.16684285 0.047316857
0.46602309 0.16842911 0.047297634
0.46600848 0.17001538 0.047278412
0.46599385 0.17160164 0.047259185
0.46597925 0.17318791 0.047239963
0.46596462 0.17477417 0.04722074
0.46595001 0.17636044 0.047201518
0.46593538 0.1779467 0.047182295
0.46592078 0.17953297 0.047163069
0.46590614 0.18111923 0.047143847
0.46589154 0.18270549 0.047124624
0.46587691 0.18429177 0.047105402
0.4658623 0.18587802 0.047086179
0.46584767 0.18746428 0.047066957
0.46583307 0.18905056 0.047047731
0.46581843 0.19063681 0.047028508
0.46580383 0.19222307 0.047009286
0.4657892 0.19380935 0.046990063
0.4657746 0.1953956 0.046970841
0.46575996 0.19698188 0.046951614
0.46574536 0.19856814 0.046932392
0.46573073 0.20015441 0.046913169
0.46571612 0.20174067 0.046893947
0.46570149 0.20332693 0.046874724
0.46568689 0.2049132 0.046855502
0.46567225 0.20649946 0.046836276
0.46565765 0.20808573 0.046817053
0.46564302 0.20967199 0.046797831
0.46562842 0.21125825 0.046778608
0.46561378 0.21284452 0.046759386
0.46559918 0.21443078 0.046740163
0.46558455 0.21601704 0.046720937
0.46556994 0.21760331 0.046701714
0.46555531 0.21918957 0.046682492
0.46554071 0.22077584 0.046663269
0.46552607 0.22236212 0.046644047
0.46551147 0.22394837 0.046624821
0.46549684 0.22553463 0.046605598
0.46548223 0.22712091 0.046586376
0.4654676 0.22870716 0.046567153
0.46795639 0.22990547 0.048260953
0.46794182 0.23148638 0.048241794
0.46792725 0.23306729 0.048222635
0.46791267 0.23464817 0.048203476
0.46789813 0.23622908 0.04818432
0.46788356 0.23780999 0.048165161
0.46786898 0.23939088 0.048146002
0.46785441 0.24097177 0.048126847
0.46783984 0.24255268 0.048107687
0.46782526 0.24413358 0.048088528
0.46781072 0.24571447 0.048069369
0.46779615 0.24729536 0.048050214
0.46778157 0.24887627 0.048031054
0.467767 0.25045717 0.048011895
0.46775243 0.25203806 0.04799274
0.46523374 0.25408739 0.046259582
0.46521911 0.25567365 0.04624036
0.46520451 0.25725991 0.046221137
0.46518987 0.25884619 0.046201911
0.46517527 0.26043245 0.046182688
0.46516064 0.26201871 0.046163466
0.46514603 0.26360497 0.046144243
0.4676359 0.26468527 0.047839474
0.46762133 0.26626617 0.047820315
0.46760675 0.26784706 0.047801156
0.46759218 0.26942796 0.047782
0.46757761 0.27100885 0.047762841
0.46756303 0.27258977 0.047743682
0.46754849 0.27417067 0.047724523
0.46753392 0.27575156 0.047705367
0.46751934 0.27733245 0.047686208
0.46750477 0.27891335 0.047667049
0.4674902 0.28049424 0.04764789
0.46914569 0.2816985 0.048772231
0.46913114 0.28327581 0.048753116
0.46911663 0.28485313 0.048734002
0.46910208 0.28643045 0.048714887
0.46908754 0.2880078 0.048695773
0.47074321 0.28919056 0.049820315
0.4707287 0.2907643 0.049801245
0.47071418 0.29233804 0.049782172
0.4706997 0.29391178 0.049763102
0.47068518 0.29548556 0.049744029
0.4706707 0.2970593 0.049724959
0.4689858 0.29904905 0.048561968
0.46897125 0.30062637 0.048542853
0.47062719 0.30178052 0.049667742
0.4689422 0.303781 0.048504625
0.47059816 0.30492803 0.049629603
0.47058368 0.30650175 0.049610529
0.47056916 0.30807552 0.049591459
0.47055468 0.30964926 0.049572386
0.47054017 0.311223 0.049553316
0.47052565 0.31279674 0.049534243
0.47051117 0.31437048 0.049515173
0.47049665 0.31594422 0.049496099
0.47048214 0.317518 0.04947703
0.47046766 0.31909174 0.049457956
0.47045314 0.32066548 0.049438886
0.47043866 0.32223922 0.049419817
0.47042415 0.32381296 0.049400743
0.47040963 0.32538673 0.049381673
0.47039515 0.32696044 0.0493626
0.46870962 0.32901818 0.048198786
0.47036615 0.33010796 0.049324457
0.47035164 0.3316817 0.049305387
0.47033712 0.33325544 0.049286313
0.47032264 0.33482918 0.049267244
0.47030813 0.33640292 0.04924817
0.47029361 0.33797669 0.0492291
0.47027913 0.33955041 0.049210031
0.47026461 0.34112418 0.049190957
0.47025013 0.34269792 0.049171887
0.47023562 0.34427166 0.049152814
0.4702211 0.3458454 0.049133744
0.47020662 0.34741914 0.049114671
0.4701921 0.34899291 0.049095601
0.47017759 0.35056666 0.049076527
0.47016311 0.3521404 0.049057458
0.47014859 0.35371414 0.049038384
0.47013411 0.35528788 0.049019314
0.4701196 0.35686162 0.049000245
0.47010508 0.35843536 0.048981171
0.4700906 0.36000913 0.048962101
0.47007608 0.36158288 0.048943028
0.47006157 0.36315662 0.048923958
0.47004709 0.36473036 0.048904885
0.47003257 0.3663041 0.048885815
0.47001809 0.36787784 0.048866741
0.47000358 0.36945158 0.048847672
0.46998906 0.37102535 0.048828598
0.45457861 -0.099166639 0.039084453
0.45456371 -0.097548194 0.039064839
0.45454878 -0.095929742 0.039045226
0.45453387 -0.094311275 0.039025612
0.45451894 -0.092692822 0.039005999
0.45450404 -0.09107437 0.038986385
0.45448911 -0.089455925 0.038966771
0.45447421 -0.087837458 0.038947158
0.45445931 -0.086219005 0.038927544
0.45444438 -0.084600553 0.038907934
0.45442948 -0.082982101 0.03888832
0.45441455 -0.081363633 0.038868707
0.45439965 -0.079745188 0.038849093
0.45438471 -0.078126736 0.038829479
0.45436981 -0.076508284 0.038809866
0.45435488 -0.074889831 0.038790252
0.45433998 -0.073271364 0.038770638
0.45432508 -0.071652912 0.038751025
0.45431015 -0.070034467 0.038731415
0.45429525 -0.068416014 0.038711801
0.45428032 -0.066797547 0.038692188
0.45426542 -0.065179095 0.038672574
0.45425048 -0.063560642 0.03865296
0.45423558 -0.061942194 0.038633347
0.45422065 -0.060323726 0.038613733
0.45420575 -0.058705278 0.038594119
0.45419085 -0.057086825 0.038574506
0.45417592 -0.055468373 0.038554892
0.45416102 -0.053849924 0.038535282
0.45414609 -0.052231457 0.038515668
0.45413119 -0.050613005 0.038496055
0.45411626 -0.048994556 0.038476441
0.45410135 -0.047376104 0.038456827
0.45408642 -0.045757636 0.038437214
0.45407152 -0.044139188 0.0384176
0.45405662 -0.042520735 0.038397986
0.45404169 -0.040902283 0.038378373
0.45402679 -0.039283819 0.038358759
0.45401186 -0.037665367 0.038339149
0.45399696 -0.036046915 0.038319536
0.45398203 -0.034428466 0.038299922
0.45396712 -0.032810014 0.038280308
0.45561337 -0.030867169 0.039398305
0.45559847 -0.029252293 0.039378736
0.4555836 -0.027637418 0.039359167
0.45556873 -0.026022542 0.039339598
0.45721516 -0.02409759 0.040457863
0.45720032 -0.02248629 0.040438335
0.45718545 -0.020874985 0.040418811
0.45717061 -0.019263685 0.040399283
0.45715576 -0.017652385 0.040379755
0.45714092 -0.016041085 0.040360231
0.45712608 -0.014429779 0.040340703
0.45711121 -0.01281848 0.040321179
0.45709637 -0.01120718 0.040301651
0.45708153 -0.0095958812 0.040282123
0.45706668 -0.007984574 0.040262599
0.45705181 -0.0063732746 0.040243071
0.45952949 -0.0043612486 0.041931007
0.45951471 -0.0027553129 0.041911546
0.4594999 -0.0011493774 0.041892085
0.45948508 0.00045655816 0.041872624
0.4594703 0.0020625012 0.04185316
0.46111739 0.003917702 0.042972263
0.46110263 0.0055200616 0.042952843
0.46108785 0.0071224216 0.042933427
0.4610731 0.0087247808 0.042914007
0.46105832 0.010327141 0.042894587
0.46104357 0.011929501 0.042875171
0.46102878 0.01353186 0.042855751
0.46101403 0.01513422 0.042836335
0.45933712 0.016515922 0.041678008
0.4593223 0.018121857 0.041658547
0.45930752 0.019727793 0.041639086
0.45929271 0.021333728 0.041619621
0.4592779 0.022939663 0.04160016
0.46092543 0.024748378 0.042719826
0.46091068 0.026350738 0.042700406
0.4608959 0.027953098 0.04268099
0.46088114 0.029555457 0.04266157
0.46086636 0.03115781 0.04264215
0.46085161 0.032760169 0.042622734
0.46083683 0.034362528 0.042603314
0.46082208 0.035964888 0.042583898
0.46080729 0.037567247 0.042564478
0.46079254 0.03916961 0.042545062
0.46077776 0.040771969 0.042525642
0.46076301 0.042374328 0.042506225
0.46074823 0.043976687 0.042486805
0.46073347 0.045579046 0.042467389
0.46071869 0.047181405 0.042447969
0.4623667 0.048932888 0.043568287
0.46235198 0.05053167 0.043548912
0.46233726 0.052130453 0.043529537
0.4623225 0.053729236 0.043510161
0.46230778 0.055328019 0.043490786
0.46478748 0.057123654 0.045181386
0.46477279 0.058717076 0.045162078
0.46475813 0.06031049 0.045142766
0.46224883 0.06172315 0.043413289
0.46223411 0.063321933 0.043393914
0.46221939 0.064920716 0.043374538
0.46220464 0.066519499 0.043355163
0.46052673 0.068012081 0.042195532
0.46051198 0.06961444 0.042176116
0.4604972 0.071216799 0.042156696
0.46048245 0.072819158 0.04213728
0.4604677 0.074421518 0.04211786
0.46045291 0.076023877 0.04209844
0.46043816 0.077626236 0.042079024
0.46208677 0.079309762 0.043200165
0.46207204 0.080908544 0.04318079
0.46205732 0.082507327 0.043161415
0.46204257 0.084106103 0.043142039
0.46202785 0.085704893 0.043122664
0.4645085 0.087398589 0.044814501
0.46449381 0.088992007 0.044795189
0.46447912 0.090585425 0.044775881
0.46446446 0.092178844 0.044756569
0.46444976 0.093772262 0.044737261
0.46443507 0.095365681 0.044717949
0.46442041 0.096959099 0.044698641
0.46440572 0.098552518 0.044679329
0.46605483 0.1001806 0.045801159
0.46604019 0.10177044 0.045781892
0.46602553 0.10336028 0.045762628
0.4660109 0.10495012 0.045743361
0.46599624 0.10653996 0.045724094
0.46598157 0.10812981 0.045704827
0.46596694 0.10971964 0.04568556
0.46595228 0.11130948 0.045666296
0.46593764 0.11289933 0.045647029
0.46592298 0.11448917 0.045627762
0.46590832 0.11607901 0.045608494
0.46589369 0.11766885 0.045589227
0.46587902 0.11925869 0.04556996
0.46586439 0.12084853 0.045550697
0.46584973 0.12243837 0.045531429
0.46583506 0.12402821 0.045512162
0.46582043 0.12561806 0.045492895
0.46580577 0.12720789 0.045473628
0.46579114 0.12879774 0.045454364
0.46577647 0.13038757 0.045435097
0.46576181 0.13197742 0.04541583
0.46574718 0.13356726 0.045396563
0.46573251 0.13515711 0.045377295
0.46571788 0.13674694 0.045358032
0.46570322 0.13833678 0.045338765
0.46568856 0.13992663 0.045319498
0.46567392 0.14151646 0.04530023
0.46565926 0.1431063 0.045280963
0.46730942 0.14463067 0.046404075
0.46729478 0.14621693 0.046384852
0.46728018 0.1478032 0.046365626
0.46726555 0.14938946 0.046346404
0.46725094 0.15097572 0.046327181
0.46723631 0.15256199 0.046307959
0.46722171 0.15414825 0.046288736
