# .PCD v0.7 - Point Cloud Data file format
VERSION 0.7
FIELDS x y z
SIZE 4 4 4
TYPE F F F
COUNT 1 1 1
WIDTH 1372
HEIGHT 1
VIEWPOINT 0 0 0 1 0 0 0
POINTS 1372
DATA ascii
-0.68901819 0.90959352 -0.62405884
-0.68905413 0.91349751 -0.62410611
-0.68909013 0.91740143 -0.62415344
-0.68912607 0.92130542 -0.62420076
-0.68916208 0.9252094 -0.62424809
-0.68919802 0.92911333 -0.62429535
-0.68923402 0.93301731 -0.62434268
-0.68927002 0.93692124 -0.62439001
-0.68930596 0.94082522 -0.62443727
-0.68934196 0.94472921 -0.6244846
-0.6893779 0.94863313 -0.62453192
-0.68941391 0.95253712 -0.62457925
-0.68944991 0.95644104 -0.62462652
-0.68948585 0.96034509 -0.62467384
-0.68952185 0.96424901 -0.62472117
-0.68955779 0.96815294 -0.6247685
-0.68959379 0.97205693 -0.62481576
-0.68962973 0.97596085 -0.62486309
-0.68966573 0.9798649 -0.62491041
-0.68970174 0.98376882 -0.62495774
-0.68973768 0.98767281 -0.62500501
-0.67761809 0.98595887 -0.61749703
-0.67765385 0.98983783 -0.61754405
-0.67768961 0.99371678 -0.61759108
-0.67772532 0.99759567 -0.61763805
-0.67776108 1.0014746 -0.61768508
-0.67779684 1.0053536 -0.61773205
-0.6778326 1.0092324 -0.61777908
-0.67786831 1.0131114 -0.6178261
-0.67790407 1.0169903 -0.61787307
-0.67793983 1.0208693 -0.6179201
-0.67797554 1.0247482 -0.61796713
-0.6780113 1.0286272 -0.6180141
-0.67804706 1.032506 -0.61806113
-0.67808276 1.0363849 -0.61810815
-0.67811853 1.0402639 -0.61815512
-0.67815429 1.0441427 -0.61820215
-0.67819005 1.0480217 -0.61824918
-0.67822576 1.0519006 -0.61829615
0.16591376 0.6408717 -0.093485788
0.16589403 0.6430124 -0.09351173
0.16934882 0.64338344 -0.091377042
0.16932915 0.64551693 -0.091402896
0.17278422 0.64586651 -0.089267865
0.17276463 0.64799279 -0.089293636
0.17621979 0.64832091 -0.087158427
0.17620027 0.6504401 -0.087184109
0.17965566 0.65074676 -0.085048653
0.18311124 0.65103906 -0.082912929
0.18309185 0.653144 -0.08293844
0.18654755 0.65341485 -0.080802538
0.18652821 0.65551257 -0.080827959
0.19085297 0.6552999 -0.078151368
0.19083372 0.65738869 -0.078176685
0.19081447 0.65947747 -0.078201994
0.19079523 0.66156626 -0.078227311
0.19077598 0.66365504 -0.078252621
0.19075672 0.66574383 -0.078277938
0.18639289 0.67019665 -0.081005909
0.19071823 0.66992146 -0.078328565
0.19069898 0.67201024 -0.078353874
0.19067973 0.67409897 -0.078379191
0.19066048 0.67618775 -0.078404501
0.19064124 0.67827654 -0.078429811
0.18627691 0.68278313 -0.081158437
0.18625757 0.68488085 -0.081183858
0.18623824 0.68697858 -0.08120928
0.18621892 0.6890763 -0.081234701
0.18619959 0.69117397 -0.081260122
0.18618025 0.6932717 -0.081285544
0.18616092 0.69536948 -0.081310965
0.1861416 0.69746721 -0.081336387
0.18612225 0.69956493 -0.081361808
0.18610293 0.70166266 -0.081387229
0.1860836 0.70376039 -0.081412651
0.18606427 0.70585811 -0.081438072
0.28160584 0.65810889 -0.022031015
0.28419617 0.65847337 -0.020430988
0.28417867 0.66036898 -0.02045396
0.28676918 0.66071749 -0.018853761
0.28675175 0.66260773 -0.018876668
0.29021168 0.66242081 -0.01673523
0.29019433 0.6643039 -0.016758051
0.29017699 0.66618711 -0.016780872
0.29276782 0.66649622 -0.015180197
0.29275051 0.66837394 -0.015202952
0.29534152 0.66866696 -0.013602081
-0.3341051 -0.87455034 -0.39678955
-0.33413467 -0.87134206 -0.39682841
-0.33416423 -0.86813372 -0.39686731
-0.3341938 -0.86492544 -0.3969062
-0.33422336 -0.86171716 -0.39694506
-0.33425292 -0.85850888 -0.39698395
-0.33428249 -0.85530055 -0.39702281
-0.33431205 -0.85209227 -0.39706171
-0.33434162 -0.84888399 -0.3971006
-0.33437118 -0.84567571 -0.39713946
-0.33440074 -0.84246737 -0.39717835
-0.33443034 -0.83925909 -0.39721721
-0.3344599 -0.83605081 -0.39725611
-0.32590464 -0.82755584 -0.39199767
-0.32593405 -0.82436544 -0.39203632
-0.32596344 -0.82117504 -0.39207497
-0.32599285 -0.81798458 -0.39211366
-0.32602224 -0.81479418 -0.39215231
-0.32605165 -0.81160378 -0.39219096
-0.32608104 -0.80841339 -0.39222965
-0.32611045 -0.80522299 -0.3922683
-0.32613984 -0.80203253 -0.39230695
-0.32616925 -0.79884213 -0.39234564
-0.32619864 -0.79565173 -0.39238429
-0.32622805 -0.79246134 -0.39242294
-0.32625744 -0.78927088 -0.39246163
-0.32628685 -0.78608048 -0.39250028
-0.33490336 -0.78792638 -0.39783931
-0.33493292 -0.78471804 -0.39787817
-0.33496249 -0.78150982 -0.39791706
-0.33499205 -0.77830148 -0.39795592
-0.33502162 -0.7750932 -0.39799482
-0.33505118 -0.77188486 -0.39803371
-0.33508077 -0.76867664 -0.39807257
-0.33511034 -0.7654683 -0.39811146
-0.3351399 -0.76226002 -0.39815032
-0.33516946 -0.75905168 -0.39818922
-0.33519903 -0.7558434 -0.39822811
-0.33522859 -0.75263512 -0.39826697
-0.32666907 -0.74460512 -0.3930029
-0.32669845 -0.74141473 -0.39304155
-0.32672787 -0.73822427 -0.39308023
-0.31902662 -0.73074269 -0.38834572
-0.31905589 -0.72756833 -0.38838419
-0.31908512 -0.72439402 -0.38842264
-0.31911439 -0.72121966 -0.38846111
-0.69704145 0.75358558 -0.63258302
-0.69707763 0.75751454 -0.63263065
-0.69711387 0.76144356 -0.63267827
-0.68502492 0.7612319 -0.62516981
-0.68506092 0.76513588 -0.62521714
-0.68509692 0.76903981 -0.62526447
-0.68513286 0.77294379 -0.62531179
-0.68516886 0.77684772 -0.62535906
-0.6852048 0.78075171 -0.62540638
-0.68524081 0.78465569 -0.62545371
-0.68527675 0.78855962 -0.62550104
-0.68531275 0.7924636 -0.6255483
-0.68534875 0.79636759 -0.62559563
-0.68538469 0.80027151 -0.62564296
-0.68542069 0.8041755 -0.62569028
-0.68545663 0.80807942 -0.62573755
-0.68549263 0.81198341 -0.62578487
-0.68552864 0.81588739 -0.6258322
-0.68556458 0.81979138 -0.62587947
-0.68560058 0.8236953 -0.62592679
-0.68563652 0.82759923 -0.62597412
-0.68567252 0.83150321 -0.62602144
-0.68570846 0.8354072 -0.62606871
-0.68574446 0.83931118 -0.62611604
-0.68578047 0.84321511 -0.62616336
-0.68581641 0.84711903 -0.62621069
-0.68585241 0.85102308 -0.62625796
-0.68588835 0.854927 -0.62630528
-0.68592435 0.85883099 -0.62635261
-0.68596029 0.86273491 -0.62639993
-0.68599629 0.86663884 -0.6264472
-0.6860323 0.87054288 -0.62649453
-0.68606824 0.87444681 -0.62654185
-0.68610424 0.87835079 -0.62658912
-0.68614018 0.88225472 -0.62663645
-0.68617618 0.88615865 -0.62668377
-0.68621212 0.89006269 -0.6267311
-0.68624812 0.89396662 -0.62677836
-0.68628412 0.8978706 -0.62682569
-0.68632007 0.90177453 -0.62687302
-0.68635607 0.90567857 -0.62692034
-0.68639201 0.9095825 -0.62696761
-0.68642801 0.91348642 -0.62701494
-0.68646401 0.91739041 -0.62706226
-0.68649995 0.92129433 -0.62710959
-0.68653595 0.92519838 -0.62715685
-0.6865719 0.9291023 -0.62720418
-0.6866079 0.93300623 -0.62725151
-0.68664384 0.93691021 -0.62729877
-0.68667984 0.94081414 -0.6273461
-0.68671584 0.94471818 -0.62739342
-0.68675178 0.94862211 -0.62744075
-0.68678778 0.95252603 -0.62748802
-0.68682373 0.95643002 -0.62753534
-0.68685973 0.960334 -0.62758267
-0.68689567 0.96423799 -0.62763
-0.68693167 0.96814191 -0.62767726
-0.68696767 0.97204584 -0.62772459
-0.67486584 0.97043222 -0.62019914
-0.6749016 0.97431111 -0.62024617
-0.67493731 0.97819006 -0.6202932
-0.67497307 0.98206896 -0.62034017
-0.67500883 0.98594791 -0.6203872
-0.6750446 0.98982686 -0.62043417
-0.6750803 0.99370581 -0.62048119
-0.67511606 0.9975847 -0.62052822
-0.67515182 1.0014637 -0.62057519
-0.67518753 1.0053426 -0.62062222
-0.6630832 1.0034535 -0.61309344
-0.66311872 1.0073073 -0.61314017
-0.66315424 1.0111612 -0.61318684
-0.67533052 1.0208582 -0.62081027
-0.67536628 1.0247372 -0.62085724
-0.67540205 1.0286161 -0.62090427
-0.67543775 1.032495 -0.62095129
-0.67547351 1.036374 -0.62099826
-0.67550927 1.0402529 -0.62104529
-0.67554498 1.0441318 -0.62109226
-0.67558074 1.0480107 -0.62113929
-0.6756165 1.0518897 -0.62118632
0.16735373 0.64086568 -0.095080756
0.16733401 0.64300638 -0.095106699
0.17078398 0.64337742 -0.092966683
0.17076431 0.64551085 -0.092992537
0.17421457 0.64586049 -0.090852186
0.17419498 0.64798677 -0.090877958
0.17764534 0.64831495 -0.088737421
0.17762581 0.65043414 -0.088763103
0.18107638 0.6507408 -0.086622313
0.18105692 0.65285283 -0.086647905
0.18450776 0.65313804 -0.084506772
0.18795864 0.65340889 -0.082365535
0.18793932 0.65550661 -0.082390957
0.18791999 0.65760434 -0.082416378
0.18790066 0.65970212 -0.082441799
0.18788132 0.66179985 -0.082467221
0.18786199 0.66389757 -0.082492642
0.18784267 0.6659953 -0.082518063
0.18782333 0.66809303 -0.082543485
0.19214258 0.66782671 -0.079859592
0.19212332 0.6699155 -0.079884902
0.18776534 0.6743862 -0.082619749
0.187746 0.67648393 -0.08264517
0.18772668 0.67858166 -0.082670592
0.1842362 0.6826064 -0.084863886
0.18421681 0.68471134 -0.08488939
0.18419741 0.68681616 -0.0849149
0.18417801 0.68892103 -0.084940404
0.18415861 0.69102591 -0.084965914
0.18066765 0.69509363 -0.087159805
0.18064819 0.6972056 -0.087185398
0.18062873 0.69931763 -0.08721099
0.18408103 0.69944549 -0.08506795
0.18753336 0.69955903 -0.082924806
0.18751404 0.7016567 -0.082950227
0.18402283 0.70576018 -0.085144475
0.18400344 0.70786506 -0.085169978
0.28547132 0.65846801 -0.02184342
0.28805816 0.65882188 -0.020239282
0.28804073 0.66071212 -0.020262189
0.29149577 0.66053236 -0.018115507
0.29147843 0.6624155 -0.018138329
0.29146108 0.66429859 -0.018161148
0.29404828 0.66461313 -0.016556546
0.29403096 0.66649091 -0.016579302
0.29661828 0.66678923 -0.014974491
0.29660103 0.66866165 -0.014997181
-0.33194694 -0.8745594 -0.39918
-0.3319765 -0.87135112 -0.39921889
-0.3320061 -0.86814284 -0.39925775
-0.33203566 -0.86493456 -0.39929664
-0.33206522 -0.86172622 -0.39933553
-0.33209479 -0.85851794 -0.3993744
-0.33212435 -0.85530961 -0.39941329
-0.33215392 -0.85210139 -0.39945215
-0.33218348 -0.84889305 -0.39949104
-0.33221304 -0.84568477 -0.39952993
-0.33224261 -0.84247643 -0.3995688
-0.33227217 -0.83926821 -0.39960769
-0.33230174 -0.83605987 -0.39964655
-0.3323313 -0.83285159 -0.39968544
-0.3237879 -0.82437444 -0.3944135
-0.32381728 -0.82118404 -0.39445215
-0.3238467 -0.81799364 -0.39449081
-0.32387608 -0.81480324 -0.39452946
-0.3239055 -0.81161278 -0.39456815
-0.32393488 -0.80842239 -0.3946068
-0.3239643 -0.80523199 -0.39464545
-0.33256781 -0.80718523 -0.39999649
-0.33259737 -0.80397689 -0.40003535
-0.33262694 -0.80076867 -0.40007424
-0.33265653 -0.79756033 -0.40011311
-0.3326861 -0.79435205 -0.400152
-0.33271566 -0.79114372 -0.40019089
-0.33274522 -0.78793544 -0.40022975
-0.33277479 -0.78472716 -0.40026864
-0.33280435 -0.78151888 -0.40030751
-0.33283392 -0.77831054 -0.4003464
-0.33286348 -0.77510226 -0.40038529
-0.33289304 -0.77189398 -0.40042415
-0.33292261 -0.7686857 -0.40046304
-0.33295217 -0.76547736 -0.40050191
-0.33298174 -0.76226908 -0.4005408
-0.3330113 -0.7590608 -0.40057966
-0.33304086 -0.75585252 -0.40061855
-0.33307043 -0.75264418 -0.40065745
-0.33309999 -0.7494359 -0.40069631
-0.33312955 -0.74622762 -0.4007352
-0.32458171 -0.73823333 -0.39545739
-0.3246111 -0.73504293 -0.39549604
-0.31692058 -0.72757733 -0.39074934
-0.31694981 -0.72440302 -0.39078781
-0.32469931 -0.72547168 -0.39561203
-0.68232685 0.7534129 -0.62798399
-0.68236285 0.75731689 -0.62803131
-0.68239886 0.76122087 -0.62807864
-0.6824348 0.7651248 -0.62812597
-0.6824708 0.76902878 -0.62817323
-0.68250674 0.77293271 -0.62822056
-0.68254274 0.77683669 -0.62826788
-0.68257868 0.78074068 -0.62831521
-0.68261468 0.7846446 -0.62836248
-0.68265069 0.78854859 -0.6284098
-0.68268663 0.79245251 -0.62845713
-0.68272263 0.79635656 -0.62850446
-0.68275857 0.80026048 -0.62855172
-0.68279457 0.80416441 -0.62859905
-0.68283051 0.80806839 -0.62864637
-0.68286651 0.81197232 -0.62869364
-0.68290251 0.81587636 -0.62874097
-0.68293846 0.81978029 -0.62878829
-0.68297446 0.82368428 -0.62883562
-0.6830104 0.8275882 -0.62888288
-0.6830464 0.83149213 -0.62893021
-0.6830824 0.83539617 -0.62897754
-0.68311834 0.8393001 -0.62902486
-0.68315434 0.84320408 -0.62907213
-0.68319029 0.84710801 -0.62911946
-0.68322629 0.85101199 -0.62916678
-0.68326223 0.85491598 -0.62921411
-0.68329823 0.8588199 -0.62926137
-0.67121994 0.85793245 -0.6217261
-0.67125571 0.86181134 -0.62177312
-0.67129147 0.86569023 -0.62182009
-0.67132717 0.86956918 -0.62186712
-0.67136294 0.87344807 -0.62191415
-0.6713987 0.87732702 -0.62196112
-0.6714344 0.88120592 -0.62200814
-0.67147017 0.88508487 -0.62205517
-0.67150593 0.88896382 -0.62210214
-0.67154169 0.89284277 -0.62214917
-0.67157739 0.89672166 -0.6221962
-0.68372995 0.90566748 -0.62982911
-0.68376589 0.90957147 -0.62987643
-0.67168462 0.9083584 -0.62233722
-0.67172039 0.91223735 -0.62238419
-0.68387383 0.9212833 -0.63001835
-0.68390983 0.92518729 -0.63006568
-0.68394578 0.92909127 -0.63011295
-0.68398178 0.9329952 -0.63016027
-0.68401778 0.93689913 -0.6302076
-0.68405372 0.94080311 -0.63025492
-0.68408972 0.9447071 -0.63030219
-0.68412566 0.94861108 -0.63034952
-0.68416166 0.95251501 -0.63039684
-0.6841976 0.95641893 -0.63044417
-0.6721136 0.95490551 -0.62290126
-0.67214936 0.95878446 -0.62294829
-0.67218506 0.96266341 -0.62299532
-0.67222083 0.9665423 -0.62304229
-0.67225659 0.97042125 -0.62308931
-0.67229229 0.97430015 -0.62313628
-0.67232805 0.9781791 -0.62318331
-0.67236382 0.98205799 -0.62323034
-0.67239952 0.98593694 -0.62327731
-0.67243528 0.98981589 -0.62332433
-0.67247105 0.99369484 -0.62337136
-0.67250681 0.99757373 -0.62341833
-0.67254251 1.0014527 -0.62346536
-0.66045523 0.99958867 -0.61591822
-0.66049075 1.0034425 -0.61596495
-0.66052628 1.0072964 -0.61601162
-0.6605618 1.0111504 -0.61605835
-0.66059732 1.0150042 -0.61610508
-0.66063285 1.0188581 -0.61615175
-0.66066831 1.022712 -0.61619848
-0.66070384 1.0265659 -0.61624515
-0.66073936 1.0304198 -0.61629188
-0.66077489 1.0342737 -0.61633855
-0.66081041 1.0381275 -0.61638528
-0.67297149 1.0479997 -0.62402946
-0.67300719 1.0518787 -0.62407643
0.16879372 0.6408596 -0.096675746
0.16877399 0.6430003 -0.096701682
0.17221914 0.64337134 -0.094556332
0.17219949 0.64550483 -0.094582193
0.17217982 0.64763832 -0.094608046
0.17562532 0.64798081 -0.092462271
0.17907088 0.64830893 -0.0903164
0.17905134 0.65042812 -0.090342082
0.1824971 0.65073478 -0.088195965
0.18247764 0.65284681 -0.088221557
0.18592368 0.65313208 -0.086075097
0.18590428 0.65523696 -0.086100608
0.18935043 0.65550071 -0.083953954
0.1893311 0.65759838 -0.083979376
0.18931176 0.65969616 -0.084004797
0.18929243 0.66179389 -0.084030218
0.1892731 0.66389161 -0.08405564
0.19358616 0.66364318 -0.081365287
0.1935669 0.66573197 -0.081390604
0.18921511 0.67018479 -0.084131904
0.18919577 0.67228258 -0.084157325
0.18571031 0.6762858 -0.086355686
0.18569091 0.67839068 -0.086381197
0.18567152 0.68049556 -0.0864067
0.18565212 0.68260044 -0.086432211
0.18563272 0.68470538 -0.086457722
0.18561333 0.68681026 -0.086483225
0.18212731 0.69086349 -0.088682264
0.18210784 0.69297552 -0.088707857
0.18208838 0.69508761 -0.08873345
0.18206891 0.69719964 -0.08875905
0.18204945 0.69931167 -0.088784643
0.18202999 0.7014237 -0.088810235
0.18547755 0.7015444 -0.086661786
0.18545815 0.70364928 -0.086687289
0.18543875 0.70575422 -0.0867128
0.2867465 0.65846264 -0.023255853
0.29279724 0.65676075 -0.019472975
0.29277989 0.65864384 -0.019495795
0.29276255 0.66052705 -0.019518616
0.29274517 0.66241014 -0.019541437
0.29532871 0.66273004 -0.017932884
0.29531139 0.66460776 -0.017955638
0.29529411 0.66648561 -0.017978396
0.29787782 0.66678393 -0.016369592
0.29786056 0.66865635 -0.016392283
-0.3297888 -0.87456846 -0.40157047
-0.32981837 -0.87136024 -0.40160933
-0.32984793 -0.8681519 -0.40164822
-0.3298775 -0.86494362 -0.40168709
-0.32990706 -0.86173528 -0.40172598
-0.32993662 -0.85852706 -0.40176487
-0.32996619 -0.85531873 -0.40180373
-0.32999575 -0.85211045 -0.40184262
-0.33002532 -0.84890211 -0.40188149
-0.33005488 -0.84569389 -0.40192038
-0.33008444 -0.84248555 -0.40195927
-0.33011401 -0.83927727 -0.40199813
-0.33014357 -0.83606893 -0.40203702
-0.33017313 -0.83286065 -0.40207589
-0.3302027 -0.82965237 -0.40211478
-0.33023229 -0.82644409 -0.40215367
-0.32170057 -0.81800264 -0.39686796
-0.33029142 -0.82002747 -0.40223143
-0.33032098 -0.81681919 -0.40227029
-0.33035055 -0.81361091 -0.40230918
-0.33038011 -0.81040257 -0.40234807
-0.33040968 -0.80719429 -0.40238693
-0.33043924 -0.80398601 -0.40242583
-0.3304688 -0.80077773 -0.40246469
-0.33049837 -0.79756939 -0.40250358
-0.33052793 -0.79436111 -0.40254244
-0.3305575 -0.79115283 -0.40258133
-0.33058706 -0.78794456 -0.40262023
-0.33061662 -0.78473622 -0.40265909
-0.33064619 -0.78152794 -0.40269798
-0.33067575 -0.77831966 -0.40273684
-0.33070531 -0.77511138 -0.40277573
-0.33073488 -0.77190304 -0.40281463
-0.33076444 -0.76869476 -0.40285349
-0.33079401 -0.76548642 -0.40289238
-0.33082357 -0.7622782 -0.40293124
-0.33085313 -0.75906986 -0.40297014
-0.33088273 -0.75586158 -0.40300903
-0.33091229 -0.75265324 -0.40304789
-0.33094186 -0.74944502 -0.40308678
-0.33097142 -0.74623668 -0.40312564
-0.32243559 -0.73824233 -0.39783454
-0.32246497 -0.73505193 -0.39787319
-0.32249439 -0.73186159 -0.39791185
-0.32252377 -0.72867113 -0.39795053
-0.67973673 0.7573058 -0.63094014
-0.67977268 0.76120985 -0.63098747
-0.67980868 0.76511377 -0.63103473
-0.67984462 0.7690177 -0.63108206
-0.67988062 0.77292168 -0.63112938
-0.67991662 0.77682561 -0.63117671
-0.67995256 0.78072965 -0.63122398
-0.67998856 0.78463358 -0.6312713
-0.6800245 0.7885375 -0.63131863
-0.68006051 0.79244149 -0.63136595
-0.68009651 0.79634547 -0.63141322
-0.68013245 0.80024946 -0.63146055
-0.68016845 0.80415338 -0.63150787
-0.68020439 0.80805731 -0.6315552
-0.68024039 0.81196129 -0.63160247
-0.66818172 0.81137431 -0.62405217
-0.66821748 0.8152532 -0.6240992
-0.66825324 0.81913215 -0.62414616
-0.66828895 0.8230111 -0.62419319
-0.66832471 0.82689005 -0.62424022
-0.66836047 0.83076894 -0.62428719
-0.66839617 0.83464789 -0.62433422
-0.66843194 0.83852679 -0.62438118
-0.6684677 0.84240568 -0.62442821
-0.66850346 0.84628463 -0.62447524
-0.66853917 0.85016352 -0.62452221
-0.66857493 0.85404247 -0.62456924
-0.66861069 0.85792142 -0.62461627
-0.6686464 0.86180037 -0.62466323
-0.66868216 0.86567926 -0.62471026
-0.66871792 0.86955822 -0.62475729
-0.66875368 0.87343711 -0.62480426
-0.66878939 0.87731606 -0.62485129
-0.66882515 0.88119495 -0.62489831
-0.66886091 0.8850739 -0.62494528
-0.66889662 0.88895285 -0.62499231
-0.66893238 0.89283174 -0.62503934
-0.66896814 0.89671069 -0.62508631
-0.66900384 0.90058959 -0.62513334
-0.66903961 0.90446854 -0.6251803
-0.66907537 0.90834743 -0.62522733
-0.66911113 0.91222638 -0.62527436
-0.66914684 0.91610527 -0.62532133
-0.6691826 0.91998422 -0.62536836
-0.66921836 0.92386317 -0.62541538
-0.66925406 0.92774212 -0.62546235
-0.66928983 0.93162102 -0.62550938
-0.66932559 0.93549991 -0.62555641
-0.66936135 0.93937886 -0.62560338
-0.66939706 0.94325775 -0.62565041
-0.66943282 0.9471367 -0.62569743
-0.66946858 0.95101559 -0.6257444
-0.66950428 0.95489454 -0.62579143
-0.66954005 0.95877349 -0.6258384
-0.66957581 0.96265244 -0.62588543
-0.66961151 0.96653134 -0.62593246
-0.66964728 0.97041029 -0.62597942
-0.66968304 0.97428918 -0.62602645
-0.6697188 0.97816813 -0.62607348
-0.66975451 0.98204702 -0.62612045
-0.66979027 0.98592591 -0.62616748
-0.66982603 0.98980492 -0.6262145
-0.65775627 0.98801607 -0.6186496
-0.65779179 0.99186999 -0.61869633
-0.65782732 0.99572384 -0.618743
-0.65786278 0.99957776 -0.61878973
-0.65789831 1.0034317 -0.61883646
-0.65793383 1.0072855 -0.61888313
-0.65796936 1.0111394 -0.61892986
-0.65800488 1.0149933 -0.61897653
-0.6580404 1.0188472 -0.61902326
-0.65807587 1.0227011 -0.61906993
-0.65811139 1.0265551 -0.61911666
-0.65814692 1.0304089 -0.61916333
-0.65818244 1.0342628 -0.61921006
-0.65821797 1.0381167 -0.61925679
-0.65825349 1.0419706 -0.61930346
0.16677366 0.64260882 -0.10044723
0.17021397 0.64299423 -0.098296657
0.17019424 0.64513487 -0.0983226
0.17363465 0.64549881 -0.096171834
0.17361498 0.6476323 -0.096197687
0.17705569 0.64797479 -0.094046593
0.17703609 0.65010107 -0.094072357
0.18047689 0.6504221 -0.091921069
0.18045737 0.65254128 -0.091946751
0.18389837 0.65284085 -0.089795217
0.18387891 0.65495288 -0.08982081
0.1873202 0.655231 -0.087668933
0.1873008 0.65733588 -0.087694444
0.19074219 0.65759248 -0.085542373
0.19072287 0.65969026 -0.085567795
0.19070354 0.66178799 -0.085593216
0.1906842 0.66388571 -0.085618638
0.19066487 0.66598344 -0.085644059
0.19064555 0.6680811 -0.08566948
0.1906262 0.67017883 -0.085694902
0.18714562 0.67417496 -0.087898508
0.18366481 0.67818534 -0.090102352
0.18364535 0.68029737 -0.090127952
0.18362589 0.68240941 -0.090153545
0.18360643 0.68452138 -0.090179138
0.18358696 0.68663347 -0.090204731
0.18356749 0.6887455 -0.090230331
0.18354803 0.69085753 -0.090255924
0.18352857 0.69296956 -0.090281516
0.18350911 0.69508165 -0.090307109
0.18348965 0.69719368 -0.090332709
0.18347019 0.69930571 -0.090358302
0.18345073 0.70141774 -0.090383895
0.18343125 0.70352983 -0.090409495
0.18687408 0.70364332 -0.088255621
0.18339233 0.70775384 -0.09046068
0.29406399 0.65675545 -0.020876072
0.29664376 0.65709144 -0.019263722
0.29662645 0.65896916 -0.019286476
0.29660913 0.66084701 -0.019309234
0.29659185 0.66272473 -0.019331988
0.29657453 0.66460246 -0.019354744
0.29915461 0.66490626 -0.017742014
0.29913735 0.66677862 -0.017764704
0.2991201 0.66865104 -0.017787395
-0.32763064 -0.87457758 -0.40396094
-0.3276602 -0.8713693 -0.40399984
-0.32768977 -0.86816096 -0.4040387
-0.32771933 -0.86495268 -0.40407759
-0.33544147 -0.86664748 -0.40891829
-0.32777846 -0.85853612 -0.40415534
-0.32780802 -0.85532779 -0.40419421
-0.32783759 -0.85211951 -0.4042331
-0.32786715 -0.84891123 -0.40427199
-0.32789671 -0.84570295 -0.40431085
-0.32792628 -0.84249461 -0.40434974
-0.32795584 -0.83928633 -0.40438861
-0.32798541 -0.83607805 -0.4044275
-0.32801497 -0.83286977 -0.40446639
-0.32804453 -0.82966143 -0.40450525
-0.3280741 -0.82645315 -0.40454414
-0.32810366 -0.82324487 -0.40458301
-0.32813323 -0.82003659 -0.4046219
-0.32816279 -0.81682825 -0.40466079
-0.32819235 -0.81361997 -0.40469965
-0.32822192 -0.81041169 -0.40473855
-0.32825151 -0.80720341 -0.40477741
-0.32828107 -0.80399507 -0.4048163
-0.32831064 -0.80078679 -0.40485516
-0.3283402 -0.79757845 -0.40489405
-0.32836977 -0.79437023 -0.40493295
-0.32839933 -0.79116189 -0.40497181
-0.32842889 -0.78795362 -0.4050107
-0.32845846 -0.78474528 -0.40504956
-0.32848802 -0.78153706 -0.40508845
-0.32851759 -0.77832872 -0.40512735
-0.32854715 -0.77512044 -0.40516621
-0.32857671 -0.7719121 -0.4052051
-0.32860628 -0.76870388 -0.40524396
-0.32863584 -0.76549554 -0.40528286
-0.32866541 -0.76228726 -0.40532175
-0.32869497 -0.75907892 -0.40536061
-0.32872453 -0.7558707 -0.4053995
-0.3287541 -0.75266236 -0.40543836
-0.32878366 -0.74945408 -0.40547726
-0.32881323 -0.74624574 -0.40551612
-0.32884279 -0.74303746 -0.40555501
-0.32031885 -0.73506099 -0.40025035
-0.32034823 -0.73187059 -0.400289
-0.32037765 -0.72868013 -0.40032765
-0.66507202 0.75705838 -0.62628424
-0.66510773 0.76093733 -0.62633127
-0.66514349 0.76481622 -0.62637824
-0.66517925 0.76869518 -0.62642527
-0.66521496 0.77257407 -0.62647223
-0.67732644 0.78071856 -0.6341328
-0.67736244 0.78462255 -0.63418013
-0.66532224 0.7842108 -0.62661326
-0.66535795 0.78808975 -0.62666029
-0.66539371 0.7919687 -0.62670732
-0.66542947 0.79584765 -0.62675428
-0.66546518 0.79972655 -0.62680131
-0.66550094 0.8036055 -0.62684834
-0.6655367 0.80748439 -0.62689531
-0.6655724 0.81136334 -0.62694234
-0.66560817 0.81524223 -0.62698936
-0.66564393 0.81912118 -0.62703633
-0.66567969 0.82300013 -0.62708336
-0.6657154 0.82687902 -0.62713039
-0.66575116 0.83075798 -0.62717736
-0.66578692 0.83463687 -0.62722439
-0.66582263 0.83851582 -0.62727135
-0.66585839 0.84239471 -0.62731838
-0.66589415 0.84627366 -0.62736541
-0.66592991 0.85015255 -0.62741238
-0.66596562 0.8540315 -0.62745941
-0.66600138 0.85791045 -0.62750643
-0.66603714 0.86178941 -0.6275534
-0.66607285 0.8656683 -0.62760043
-0.66610861 0.86954719 -0.62764746
-0.66614437 0.87342614 -0.62769443
-0.66618007 0.87730503 -0.62774146
-0.66621584 0.88118398 -0.62778848
-0.6662516 0.88506287 -0.62783545
-0.66628736 0.88894188 -0.62788248
-0.66632307 0.89282078 -0.62792945
-0.66635883 0.89669973 -0.62797648
-0.66639459 0.90057862 -0.62802351
-0.66643029 0.90445757 -0.62807047
-0.66646606 0.90833646 -0.6281175
-0.66650182 0.91221541 -0.62816453
-0.66653758 0.9160943 -0.6282115
-0.66657329 0.91997319 -0.62825853
-0.66660905 0.92385221 -0.62830555
-0.66664481 0.9277311 -0.62835252
-0.66668051 0.93161005 -0.62839955
-0.66671628 0.93548894 -0.62844658
-0.66675204 0.93936789 -0.62849355
-0.66678774 0.94324678 -0.62854058
-0.66682351 0.94712573 -0.62858754
-0.66685927 0.95100462 -0.62863457
-0.66689503 0.95488358 -0.6286816
-0.66693074 0.95876253 -0.62872857
-0.6669665 0.96264142 -0.6287756
-0.66700226 0.96652037 -0.62882262
-0.66703796 0.97039926 -0.62886959
-0.65498626 0.96873575 -0.62128758
-0.65502179 0.97258961 -0.62133431
-0.65505725 0.97644353 -0.62138098
-0.65509278 0.98029739 -0.62142771
-0.6551283 0.9841513 -0.62147444
-0.65516382 0.98800516 -0.62152112
-0.65519935 0.99185908 -0.62156785
-0.65523487 0.99571294 -0.62161452
-0.65527034 0.99956685 -0.62166125
-0.6440798 0.99806488 -0.61462128
-0.64411509 1.0018955 -0.61466771
-0.64415038 1.0057261 -0.61471415
-0.64418566 1.0095568 -0.61476058
-0.64422101 1.0133874 -0.61480701
-0.64425629 1.0172181 -0.61485338
-0.64429158 1.0210488 -0.61489981
-0.64432687 1.0248795 -0.61494625
-0.64436221 1.0287101 -0.61499268
-0.65562552 1.0381057 -0.62212825
0.16821845 0.64260274 -0.10204754
0.16819866 0.64475054 -0.10207357
0.17163421 0.64512879 -0.099917576
0.17161448 0.64726943 -0.099943511
0.17505015 0.64762622 -0.097787343
0.1750305 0.64975977 -0.097813196
0.17846644 0.65009505 -0.095656671
0.18190244 0.65041614 -0.093500063
0.1818829 0.65253532 -0.093525745
0.1853191 0.65283489 -0.091368876
0.18529963 0.65494692 -0.091394469
0.18873613 0.65522504 -0.089237265
0.19217263 0.65548879 -0.08707995
0.1921533 0.65758651 -0.087105371
0.19213398 0.6596843 -0.087130792
0.19211464 0.66178203 -0.087156214
0.19209531 0.66387975 -0.087181635
0.19207598 0.66597748 -0.087207057
0.19205664 0.6680752 -0.087232478
0.18858095 0.67206407 -0.089441329
0.18510501 0.67606735 -0.091650419
0.18508555 0.67817932 -0.091676012
0.18506609 0.68029135 -0.091701612
0.18504661 0.68240339 -0.091727205
0.18502715 0.68451542 -0.091752797
0.18500769 0.68662751 -0.09177839
0.18498823 0.68873954 -0.09180399
0.18496877 0.69085157 -0.091829583
0.18494931 0.6929636 -0.091855176
0.18492985 0.69507569 -0.091880776
0.18491037 0.69718772 -0.091906369
0.18489091 0.69929969 -0.091931961
0.18487145 0.70141172 -0.091957554
0.18485199 0.70352381 -0.091983154
0.18483253 0.70563585 -0.092008747
0.18481307 0.70774788 -0.09203434
0.29792419 0.65520835 -0.020640071
0.30309391 0.65399182 -0.017384496
0.30048317 0.65741134 -0.019046351
0.29787228 0.66084164 -0.020708337
0.29785499 0.66271943 -0.020731093
0.3004314 0.66302854 -0.019114424
0.30041414 0.66490096 -0.019137114
0.30039689 0.66677332 -0.019159805
0.30297348 0.66706109 -0.017542876
-0.33315364 -0.87955421 -0.41116443
-0.33318335 -0.87632978 -0.4112035
-0.33321306 -0.87310535 -0.41124257
-0.3332428 -0.86988097 -0.41128168
-0.33327252 -0.8666566 -0.41132075
-0.33330223 -0.86343223 -0.41135982
-0.33333194 -0.8602078 -0.41139889
-0.33336166 -0.85698348 -0.41143796
-0.33339137 -0.85375905 -0.41147703
-0.33342108 -0.85053462 -0.4115161
-0.32576811 -0.84250367 -0.40674019
-0.32579768 -0.83929545 -0.40677908
-0.32582727 -0.83608711 -0.40681794
-0.32585683 -0.83287883 -0.40685683
-0.3258864 -0.82967049 -0.40689573
-0.32591596 -0.82646227 -0.40693459
-0.32594553 -0.82325393 -0.40697348
-0.32597509 -0.82004565 -0.40701234
-0.32600465 -0.81683731 -0.40705124
-0.32603422 -0.81362909 -0.40709013
-0.32606378 -0.81042075 -0.40712899
-0.32609335 -0.80721247 -0.40716788
-0.32612291 -0.80400413 -0.40720674
-0.32615247 -0.80079591 -0.40724564
-0.32618204 -0.79758757 -0.40728453
-0.3262116 -0.79437929 -0.40732339
-0.32624117 -0.79117095 -0.40736228
-0.32627073 -0.78796273 -0.40740114
-0.32630029 -0.7847544 -0.40744004
-0.32632986 -0.78154612 -0.4074789
-0.32635942 -0.77833778 -0.40751779
-0.32638898 -0.7751295 -0.40755668
-0.32641855 -0.77192122 -0.40759555
-0.32644811 -0.76871294 -0.40763444
-0.32647771 -0.7655046 -0.4076733
-0.32650727 -0.76229632 -0.40771219
-0.33422333 -0.76347607 -0.41257113
-0.33425304 -0.76025176 -0.4126102
-0.33428276 -0.75702733 -0.41264927
-0.32662553 -0.74946314 -0.4078677
-0.32665509 -0.74625486 -0.40790659
-0.32668465 -0.74304658 -0.40794548
-0.31817272 -0.73506999 -0.40262747
-0.31820211 -0.73187965 -0.40266615
-0.66246271 0.75704741 -0.62917435
-0.66249847 0.76092631 -0.62922138
-0.66253424 0.76480526 -0.62926841
-0.66256994 0.76868415 -0.62931538
-0.6626057 0.7725631 -0.6293624
-0.66264147 0.77644199 -0.62940943
-0.66267717 0.78032094 -0.6294564
-0.66271293 0.78419983 -0.62950343
-0.66274869 0.78807878 -0.62955046
-0.6627844 0.79195774 -0.62959743
-0.66282016 0.79583669 -0.62964445
-0.66285592 0.79971558 -0.62969148
-0.66289169 0.80359447 -0.62973845
-0.66292739 0.80747342 -0.62978548
-0.66296315 0.81135231 -0.62983245
-0.66299891 0.81523126 -0.62987947
-0.66303462 0.81911016 -0.6299265
-0.66307038 0.82298917 -0.62997347
-0.66310614 0.82686806 -0.6300205
-0.66314191 0.83074701 -0.63006753
-0.66317761 0.8346259 -0.6301145
-0.66321337 0.83850485 -0.63016152
-0.66324914 0.84238374 -0.63020855
-0.66328484 0.84626269 -0.63025552
-0.6633206 0.85014158 -0.63030255
-0.66335636 0.85402048 -0.63034958
-0.66339207 0.85789949 -0.63039654
-0.66342783 0.86177838 -0.63044357
-0.66346359 0.86565733 -0.6304906
-0.66349936 0.86953622 -0.63053757
-0.66353506 0.87341517 -0.6305846
-0.66357082 0.87729406 -0.63063157
-0.66360658 0.88117301 -0.63067859
-0.66364229 0.88505191 -0.63072562
-0.66367805 0.88893092 -0.63077259
-0.66371381 0.89280981 -0.63081962
-0.66374958 0.8966887 -0.63086665
-0.66378528 0.90056765 -0.63091362
-0.65175456 0.89935476 -0.62331843
-0.65179008 0.90320867 -0.62336516
-0.65182555 0.90706253 -0.62341183
-0.65186107 0.91091645 -0.62345856
-0.6518966 0.91477031 -0.62350523
-0.65193212 0.91862422 -0.62355196
-0.65196764 0.92247808 -0.62359864
-0.65200317 0.926332 -0.62364537
-0.65203863 0.93018591 -0.62369204
-0.65207416 0.93403977 -0.62373877
-0.65210968 0.93789369 -0.6237855
-0.65214521 0.94174755 -0.62383217
-0.65218073 0.94560152 -0.6238789
-0.65221626 0.94945538 -0.62392557
-0.65225172 0.9533093 -0.6239723
-0.65228724 0.95716316 -0.62401897
-0.65232277 0.96101707 -0.6240657
-0.65235829 0.96487093 -0.62411237
-0.65239382 0.96872485 -0.6241591
-0.65242934 0.9725787 -0.62420583
-0.65246481 0.97643262 -0.6242525
-0.65250033 0.98028648 -0.62429923
-0.65253586 0.9841404 -0.6243459
-0.65257138 0.98799425 -0.62439263
-0.6526069 0.99184817 -0.6244393
-0.65264243 0.99570203 -0.62448603
-0.64146769 0.99422336 -0.61742902
-0.64150298 0.99805403 -0.61747545
-0.64153826 1.0018847 -0.61752188
-0.64157361 1.0057154 -0.61756831
-0.64160889 1.0095459 -0.61761475
-0.64164418 1.0133766 -0.61766118
-0.64167947 1.0172073 -0.61770755
-0.64171481 1.0210379 -0.61775398
-0.6417501 1.0248686 -0.61780041
-0.63057321 1.0231575 -0.6107406
-0.64182067 1.0325298 -0.61789328
0.16537018 0.64263397 -0.10635564
0.16966324 0.64259666 -0.10364784
0.16964345 0.64474446 -0.10367387
0.1730742 0.64512277 -0.10151256
0.17305447 0.64726341 -0.10153849
0.17303474 0.64940405 -0.10156444
0.17646566 0.64975375 -0.099402837
0.17644599 0.65188724 -0.099428691
0.18332797 0.65041012 -0.095079042
0.18330844 0.6525293 -0.095104724
0.18328892 0.65464854 -0.095130406
0.18672037 0.6549409 -0.092968129
0.19015203 0.65521908 -0.090805583
0.19013263 0.65732396 -0.090831093
0.19356441 0.65758061 -0.088668369
0.19354507 0.6596784 -0.08869379
0.19352575 0.66177607 -0.088719212
0.19350642 0.66387379 -0.088744633
0.19003564 0.66784835 -0.090958633
0.19001625 0.66995323 -0.090984136
0.18654521 0.67394924 -0.093198486
0.18652575 0.67606133 -0.093224078
0.18650627 0.67817336 -0.093249671
0.18648681 0.68028539 -0.093275271
0.18646735 0.68239743 -0.093300864
0.18644789 0.68450946 -0.093326457
0.18642843 0.68662155 -0.09335205
0.18640897 0.68873358 -0.09337765
0.18638951 0.69084561 -0.093403243
0.18637003 0.69295758 -0.093428835
0.18635057 0.69506967 -0.093454435
0.18633111 0.6971817 -0.093480028
0.18631165 0.69929373 -0.093505621
0.18629219 0.70140576 -0.093531214
0.18627273 0.70351785 -0.093556814
0.18625326 0.70562989 -0.093582407
0.18278116 0.70974749 -0.09579812
0.30434984 0.65398651 -0.018775605
0.3017427 0.65740603 -0.020441463
0.30172545 0.65927845 -0.020464154
0.30170819 0.66115081 -0.020486845
0.30169094 0.66302323 -0.020509535
0.30167368 0.66489565 -0.020532226
0.3042466 0.66518879 -0.018911358
0.30422941 0.66705579 -0.018933984
-0.33098465 -0.87956333 -0.41356692
-0.33101436 -0.8763389 -0.41360599
-0.33104408 -0.87311447 -0.41364506
-0.33107379 -0.86989015 -0.41368413
-0.3311035 -0.86666572 -0.4137232
-0.33113322 -0.86344135 -0.41376227
-0.33116293 -0.86021692 -0.41380134
-0.33119264 -0.8569926 -0.41384044
-0.33122236 -0.85376817 -0.41387951
-0.33125207 -0.85054374 -0.41391858
-0.33128178 -0.84731936 -0.41395766
-0.32363951 -0.83930451 -0.40916955
-0.32366908 -0.83609617 -0.40920845
-0.32369864 -0.83288795 -0.40924731
-0.3237282 -0.82967961 -0.4092862
-0.32375777 -0.82647133 -0.40932506
-0.32378733 -0.82326299 -0.40936396
-0.32381693 -0.82005471 -0.40940285
-0.32384649 -0.81684643 -0.40944171
-0.32387605 -0.81363815 -0.4094806
-0.33157891 -0.81507546 -0.41434839
-0.33160862 -0.81185108 -0.41438746
-0.33163834 -0.80862671 -0.41442657
-0.33166805 -0.80540234 -0.41446564
-0.33169776 -0.80217791 -0.41450471
-0.3317275 -0.79895347 -0.41454378
-0.33175722 -0.79572916 -0.41458285
-0.33178693 -0.79250473 -0.41462192
-0.33181664 -0.78928035 -0.41466099
-0.33184636 -0.78605598 -0.41470009
-0.33187607 -0.78283161 -0.41473916
-0.33190578 -0.77960718 -0.41477823
-0.3319355 -0.77638274 -0.4148173
-0.33196521 -0.77315843 -0.41485637
-0.33199492 -0.769934 -0.41489545
-0.33202463 -0.76670963 -0.41493452
-0.33205435 -0.76348519 -0.41497359
-0.33208406 -0.76026088 -0.41501269
-0.33211377 -0.75703645 -0.41505176
-0.33214349 -0.75381202 -0.41509083
-0.32449692 -0.74626392 -0.41029707
-0.31599718 -0.73826945 -0.40496597
-0.3160266 -0.73507905 -0.40500462
-0.64781255 0.75289613 -0.62441522
-0.65988916 0.76091534 -0.63211155
-0.65992492 0.76479429 -0.63215852
-0.65996069 0.76867318 -0.63220555
-0.65999645 0.77255213 -0.63225257
-0.66003215 0.77643102 -0.63229954
-0.66006792 0.78030998 -0.63234657
-0.66010368 0.78418887 -0.6323936
-0.66013938 0.78806776 -0.63244057
-0.66017514 0.79194677 -0.6324876
-0.66021091 0.79582566 -0.63253456
-0.66024661 0.79970461 -0.63258159
-0.66028237 0.8035835 -0.63262862
-0.64827424 0.8029967 -0.62502235
-0.64830977 0.80685055 -0.62506902
-0.64834529 0.81070447 -0.62511575
-0.66042536 0.81909919 -0.63281661
-0.66046113 0.8229782 -0.63286364
-0.66049683 0.82685709 -0.63291067
-0.66053259 0.83073604 -0.63295764
-0.64852285 0.82997388 -0.62534928
-0.64855838 0.83382779 -0.62539595
-0.64859384 0.83768165 -0.62544268
-0.64862937 0.84153557 -0.62548935
-0.64866489 0.84538943 -0.62553608
-0.64870042 0.84924334 -0.62558281
-0.64873594 0.8530972 -0.62562948
-0.64877146 0.85695112 -0.62567621
-0.64880693 0.86080498 -0.62572289
-0.64884245 0.86465889 -0.62576962
-0.64887798 0.86851275 -0.62581629
-0.6489135 0.87236667 -0.62586302
-0.64894903 0.87622052 -0.62590969
-0.64898455 0.88007444 -0.62595642
-0.64902002 0.8839283 -0.62600315
-0.64905554 0.88778222 -0.62604982
-0.64909106 0.89163607 -0.62609655
-0.64912659 0.89548999 -0.62614322
-0.64916211 0.89934385 -0.62618995
-0.64919764 0.90319777 -0.62623662
-0.6492331 0.90705162 -0.62628335
-0.64926863 0.91090554 -0.62633002
-0.64930415 0.9147594 -0.62637675
-0.64933968 0.91861331 -0.62642348
-0.6493752 0.92246717 -0.62647015
-0.64941072 0.92632109 -0.62651688
-0.64944619 0.93017495 -0.62656355
-0.64948171 0.93402886 -0.62661028
-0.64951724 0.93788278 -0.62665695
-0.64955276 0.94173664 -0.62670368
-0.64958829 0.94559062 -0.62675035
-0.64962381 0.94944447 -0.62679708
-0.64965928 0.95329839 -0.62684381
-0.6496948 0.95715225 -0.62689048
-0.64973032 0.96100616 -0.62693721
-0.64976585 0.96486002 -0.62698388
-0.64980137 0.96871394 -0.62703061
-0.6498369 0.9725678 -0.62707728
-0.64987242 0.97642171 -0.62712401
-0.64990789 0.98027557 -0.62717068
-0.64994341 0.98412949 -0.62721741
-0.638785 0.98272061 -0.62014395
-0.63882029 0.98655123 -0.62019038
-0.63885558 0.9903819 -0.62023675
-0.63889092 0.99421251 -0.62028319
-0.63892621 0.99804318 -0.62032962
-0.63896149 1.0018739 -0.62037605
-0.63899678 1.0057045 -0.62042248
-0.63903207 1.0095351 -0.62046891
-0.63906741 1.0133657 -0.62051529
-0.6391027 1.0171964 -0.62056172
-0.62794191 1.0155319 -0.61348516
-0.62797695 1.0193392 -0.61353135
-0.62801206 1.0231466 -0.61357749
-0.62804717 1.0269541 -0.61362362
0.15995002 0.64395291 -0.11232106
0.16682099 0.64262789 -0.10796261
0.16680111 0.64478463 -0.10798874
0.17108823 0.64473838 -0.10527419
0.17451417 0.64511669 -0.10310753
0.17449445 0.64725733 -0.10313347
0.17447472 0.64939803 -0.10315941
0.17790082 0.64974773 -0.10099249
0.17788117 0.65188116 -0.10101835
0.18475351 0.6504041 -0.096658036
0.18473399 0.65252328 -0.096683718
0.18816057 0.65282291 -0.094516195
0.18814111 0.65493494 -0.094541788
0.19156794 0.65521312 -0.092373908
0.19154856 0.657318 -0.092399418
0.19152915 0.65942287 -0.092424929
0.19495618 0.65967244 -0.090256788
0.19149035 0.66363269 -0.092475943
0.19147097 0.66573757 -0.092501454
0.19145156 0.66784245 -0.092526957
0.18798539 0.67183125 -0.094746552
0.18796593 0.67394328 -0.094772145
0.18794647 0.67605537 -0.094797738
0.18792701 0.6781674 -0.094823331
0.18790755 0.68027943 -0.094848931
0.18788809 0.68239146 -0.094874524
0.18786862 0.6845035 -0.094900116
0.18784915 0.68661553 -0.094925717
0.18782969 0.68872756 -0.094951309
0.18781023 0.69083959 -0.094976902
0.18779077 0.69295162 -0.095002495
0.18777131 0.69506371 -0.095028095
0.18775184 0.69717574 -0.095053688
0.18773238 0.69928777 -0.09507928
0.18771292 0.7013998 -0.095104873
0.18769345 0.70351189 -0.095130473
0.18767399 0.70562392 -0.095156066
0.18420671 0.70974147 -0.097377114
0.30560577 0.65398127 -0.020166712
0.30558857 0.65584826 -0.020189337
0.30298495 0.65927315 -0.021859255
0.3029677 0.66114551 -0.021881945
0.30295044 0.66301793 -0.021904638
0.30293319 0.66489035 -0.021927327
0.30550253 0.66518348 -0.020302467
0.30548534 0.66705048 -0.020325093
-0.32881567 -0.87957245 -0.41596934
-0.32884538 -0.87634802 -0.41600844
-0.32887509 -0.87312359 -0.41604751
-0.32890481 -0.86989927 -0.41608658
-0.32893452 -0.86667484 -0.41612566
-0.32896423 -0.86345047 -0.41616473
-0.32899395 -0.86022604 -0.4162038
-0.32902366 -0.85700172 -0.41624287
-0.32905337 -0.85377729 -0.41628197
-0.32908309 -0.85055286 -0.41632104
-0.3291128 -0.84732854 -0.41636011
-0.32914251 -0.84410411 -0.41639918
-0.32917222 -0.84087974 -0.41643825
-0.32920194 -0.83765531 -0.41647732
-0.32923165 -0.83443099 -0.41651639
-0.32926139 -0.83120656 -0.41655546
-0.32929111 -0.82798213 -0.41659456
-0.32932082 -0.82475775 -0.41663364
-0.32935053 -0.82153338 -0.41667271
-0.32938024 -0.81830901 -0.41671178
-0.32940996 -0.81508458 -0.41675085
-0.32943967 -0.81186026 -0.41678992
-0.32946938 -0.80863583 -0.41682899
-0.3294991 -0.80541146 -0.41686806
-0.32952881 -0.80218703 -0.41690716
-0.32955852 -0.79896265 -0.41694623
-0.32958823 -0.79573828 -0.4169853
-0.32961795 -0.79251385 -0.41702437
-0.32964766 -0.78928947 -0.41706344
-0.32967737 -0.7860651 -0.41710252
-0.32970709 -0.78284073 -0.41714159
-0.3297368 -0.7796163 -0.41718069
-0.32976651 -0.77639186 -0.41721976
-0.32979622 -0.77316755 -0.41725883
-0.32982594 -0.76994312 -0.4172979
-0.32985565 -0.76671875 -0.41733697
-0.32988536 -0.76349437 -0.41737604
-0.32991508 -0.76027 -0.41741511
-0.32994479 -0.75704557 -0.41745421
-0.3299745 -0.75382113 -0.41749328
-0.33000422 -0.75059682 -0.41753235
-0.31385106 -0.73827845 -0.40734309
-0.31388044 -0.73508805 -0.40738177
-0.6452201 0.75288522 -0.62728667
-0.64525563 0.75673914 -0.6273334
-0.64529115 0.760593 -0.62738013
-0.64532667 0.76444691 -0.6274268
-0.65738714 0.77254111 -0.63514268
-0.6574229 0.77642006 -0.63518971
-0.6574586 0.78029895 -0.63523668
-0.65749437 0.7841779 -0.63528371
-0.65753013 0.78805679 -0.63533074
-0.65756589 0.7919358 -0.63537771
-0.65760159 0.79581469 -0.63542473
-0.64561075 0.79527801 -0.62780046
-0.64564627 0.79913187 -0.62784714
-0.6456818 0.80298579 -0.62789387
-0.64571732 0.80683964 -0.62794054
-0.64575285 0.81069356 -0.62798727
-0.64578831 0.81454742 -0.62803394
-0.64582384 0.81840134 -0.62808067
-0.64585936 0.82225519 -0.62812734
-0.64589489 0.82610911 -0.62817407
-0.64593041 0.82996297 -0.6282208
-0.64596593 0.83381689 -0.62826747
-0.6460014 0.83767074 -0.6283142
-0.64603692 0.84152466 -0.62836087
-0.64607245 0.84537852 -0.6284076
-0.64610797 0.84923244 -0.62845427
-0.6461435 0.85308629 -0.628501
-0.64617902 0.85694021 -0.62854767
-0.64621449 0.86079407 -0.6285944
-0.64625001 0.86464798 -0.62864107
-0.64628553 0.86850184 -0.6286878
-0.64632106 0.87235576 -0.62873453
-0.64635658 0.87620962 -0.6287812
-0.64639211 0.88006353 -0.62882793
-0.64642757 0.88391739 -0.6288746
-0.6464631 0.88777131 -0.62892133
-0.64649862 0.89162517 -0.628968
-0.64653414 0.89547908 -0.62901473
-0.64656967 0.89933294 -0.6290614
-0.64660519 0.90318686 -0.62910813
-0.64664066 0.90704072 -0.62915486
-0.64667618 0.91089463 -0.62920153
-0.64671171 0.91474849 -0.62924826
-0.63557279 0.91375828 -0.62216252
-0.63560808 0.91758895 -0.62220895
-0.63564336 0.92141956 -0.62225538
-0.64685374 0.93016404 -0.62943506
-0.64688927 0.93401796 -0.62948173
-0.64692479 0.93787187 -0.62952846
-0.64696032 0.94172573 -0.62957519
-0.64699584 0.94557971 -0.62962186
-0.6358552 0.94440335 -0.62253392
-0.63589048 0.94823402 -0.62258029
-0.63592577 0.95206463 -0.62262672
-0.63596106 0.9558953 -0.62267315
-0.6359964 0.95972598 -0.62271959
-0.63603169 0.96355659 -0.62276602
-0.63606697 0.96738726 -0.62281245
-0.63610226 0.97121787 -0.62285882
-0.6361376 0.97504854 -0.62290525
-0.63617289 0.97887915 -0.62295169
-0.63620818 0.98270977 -0.62299812
-0.63624346 0.98654038 -0.62304455
-0.63627881 0.99037105 -0.62309098
-0.63631409 0.99420172 -0.62313735
-0.63634938 0.99803233 -0.62318379
-0.63638467 1.001863 -0.62323022
-0.63642001 1.0056937 -0.62327665
-0.62527543 1.0040989 -0.61618364
-0.62531054 1.0079063 -0.61622977
-0.62534565 1.0117137 -0.61627591
-0.62538069 1.015521 -0.61632204
-0.6254158 1.0193285 -0.61636817
-0.62545091 1.0231359 -0.61641431
-0.62548596 1.0269433 -0.61646044
-0.62552106 1.0307508 -0.61650658
0.16141045 0.64394677 -0.11393869
0.16483116 0.64436978 -0.11176725
0.16825192 0.64477849 -0.10959571
0.17253302 0.6447323 -0.10687449
0.17251323 0.64688015 -0.10690052
0.17593443 0.64725125 -0.10472845
0.1759147 0.64939195 -0.1047544
0.17933598 0.64974165 -0.10258213
0.17931633 0.65187514 -0.10260799
0.18617906 0.65039814 -0.098237023
0.18615954 0.65251732 -0.098262705
0.18614 0.6546365 -0.098288387
0.18956183 0.65492898 -0.096115448
0.19298387 0.65520716 -0.09394224
0.19296446 0.65731204 -0.093967751
0.19294506 0.65941691 -0.093993254
0.19292568 0.66152179 -0.094018765
0.19290628 0.66362673 -0.094044276
0.18944505 0.66760123 -0.096269019
0.18942559 0.66971326 -0.096294612
0.18596424 0.67370921 -0.098519519
0.18594471 0.6758284 -0.098545201
0.18592519 0.67794758 -0.098570883
0.18590565 0.68006682 -0.098596565
0.18588613 0.68218601 -0.098622248
0.18586659 0.68430519 -0.09864793
0.18584707 0.68642437 -0.098673612
0.18582754 0.68854362 -0.098699294
0.185808 0.69066274 -0.098724969
0.18578848 0.69278193 -0.098750651
0.18576895 0.69490117 -0.098776333
0.18574943 0.69702035 -0.098802015
0.18572989 0.69913954 -0.098827697
0.18571037 0.70125872 -0.098853379
0.18913364 0.70139378 -0.096678533
0.18911418 0.70350587 -0.096704133
0.18565178 0.70761627 -0.098930426
0.3068617 0.65397596 -0.021557821
0.30684447 0.65584296 -0.021580447
0.30682728 0.65771008 -0.021603072
0.30422723 0.6611402 -0.023277048
0.30420998 0.66301268 -0.023299739
0.30677566 0.66331118 -0.021670951
0.30675846 0.66517818 -0.021693576
0.31018522 0.66493237 -0.019514104
-0.33514518 -0.88510108 -0.42375958
-0.33517504 -0.88185877 -0.42379886
-0.32670611 -0.87313277 -0.41844997
-0.32673582 -0.86990839 -0.41848904
-0.32676554 -0.86668396 -0.41852811
-0.32679525 -0.86345959 -0.41856721
-0.32682496 -0.86023521 -0.41860628
-0.32685468 -0.85701084 -0.41864535
-0.32688439 -0.85378641 -0.41868442
-0.3269141 -0.85056198 -0.41872349
-0.32694381 -0.84733766 -0.41876256
-0.32697353 -0.84411323 -0.41880164
-0.32700324 -0.84088886 -0.41884074
-0.32703295 -0.83766443 -0.41887981
-0.32706267 -0.83444011 -0.41891888
-0.32709238 -0.83121568 -0.41895795
-0.32712209 -0.82799125 -0.41899702
-0.32715181 -0.82476693 -0.41903609
-0.32718152 -0.8215425 -0.41907516
-0.32721123 -0.81831813 -0.41911423
-0.32724094 -0.8150937 -0.41915333
-0.32727066 -0.81186938 -0.4191924
-0.32730037 -0.80864495 -0.41923147
-0.32733008 -0.80542058 -0.41927055
-0.3273598 -0.80219615 -0.41930962
-0.32738951 -0.79897177 -0.41934869
-0.32741922 -0.7957474 -0.41938776
-0.32744893 -0.79252297 -0.41942686
-0.32747865 -0.78929865 -0.41946593
-0.32750836 -0.78607422 -0.419505
-0.32753807 -0.78284985 -0.41954407
-0.32756779 -0.77962542 -0.41958314
-0.3275975 -0.77640104 -0.41962221
-0.32762721 -0.77317667 -0.41966128
-0.32765692 -0.76995224 -0.41970035
-0.32768664 -0.76672786 -0.41973945
-0.32771635 -0.76350349 -0.41977853
-0.32774609 -0.76027912 -0.4198176
-0.32777581 -0.75705469 -0.41985667
-0.32780552 -0.75383025 -0.41989574
-0.33634031 -0.75541008 -0.42533123
-0.32786494 -0.74738151 -0.41997388
-0.64262766 0.75287431 -0.63015819
-0.64266318 0.75672823 -0.63020486
-0.64269871 0.76058209 -0.63025159
-0.64273423 0.76443601 -0.63029826
-0.64276975 0.76828986 -0.63034499
-0.64280528 0.77214378 -0.63039172
-0.64284074 0.77599764 -0.63043839
-0.64287627 0.77985156 -0.63048512
-0.64291179 0.78370541 -0.63053179
-0.64294732 0.78755933 -0.63057852
-0.64298284 0.79141319 -0.63062519
-0.64301836 0.79526711 -0.63067192
-0.64305383 0.79912096 -0.63071859
-0.64308935 0.80297488 -0.63076532
-0.64312488 0.80682874 -0.63081205
-0.6431604 0.81068265 -0.63085872
-0.64319593 0.81453651 -0.63090545
-0.64323145 0.81839043 -0.63095212
-0.64326692 0.82224429 -0.63099885
-0.64330244 0.8260982 -0.63104552
-0.64333797 0.82995206 -0.63109225
-0.64337349 0.83380598 -0.63113892
-0.64340901 0.83765984 -0.63118565
-0.64344454 0.84151375 -0.63123238
-0.64348 0.84536761 -0.63127905
-0.64351553 0.84922153 -0.63132578
-0.64355105 0.85307539 -0.63137245
-0.63243115 0.85245717 -0.62427396
-0.6324665 0.85628784 -0.62432039
-0.63250178 0.86011845 -0.62436682
-0.63253707 0.86394912 -0.62441319
-0.63257235 0.86777973 -0.62445962
-0.6326077 0.8716104 -0.62450606
-0.63264298 0.87544101 -0.62455249
-0.63267827 0.87927163 -0.62459892
-0.63271356 0.8831023 -0.62464535
-0.6327489 0.88693291 -0.62469172
-0.63278419 0.89076358 -0.62473816
-0.63281947 0.89459419 -0.62478459
-0.63285476 0.89842486 -0.62483102
-0.63289005 0.90225548 -0.62487745
-0.63292539 0.90608615 -0.62492383
-0.63296068 0.90991676 -0.62497026
-0.63299596 0.91374743 -0.62501669
-0.63303125 0.9175781 -0.62506312
-0.63306659 0.92140871 -0.62510955
-0.63310188 0.92523938 -0.62515599
-0.63313717 0.92906994 -0.62520236
-0.63317245 0.93290061 -0.62524879
-0.6332078 0.93673122 -0.62529522
-0.63324308 0.94056189 -0.62534165
-0.63327837 0.9443925 -0.62538809
-0.63331366 0.94822317 -0.62543452
-0.633349 0.95205384 -0.62548089
-0.63338429 0.95588446 -0.62552732
-0.63341957 0.95971513 -0.62557375
-0.63345486 0.96354574 -0.62562019
-0.6334902 0.96737641 -0.62566662
-0.63352549 0.97120702 -0.62571305
-0.63356078 0.97503769 -0.62575942
-0.63359606 0.97886831 -0.62580585
-0.63363141 0.98269892 -0.62585229
-0.63366669 0.98652959 -0.62589872
-0.63370198 0.9903602 -0.62594515
-0.63373727 0.99419087 -0.62599152
-0.62260908 0.99266595 -0.618882
-0.62264413 0.99647331 -0.61892819
-0.62267923 1.0002807 -0.61897433
-0.62271434 1.0040882 -0.61902046
-0.62274939 1.0078955 -0.6190666
-0.6227845 1.0117029 -0.61911273
-0.62281954 1.0155103 -0.61915886
-0.62285465 1.0193176 -0.619205
-0.62288976 1.0231252 -0.61925113
-0.6229248 1.0269325 -0.61929727
