# .PCD v0.7 - Point Cloud Data file format
VERSION 0.7
FIELDS x y z
SIZE 4 4 4
TYPE F F F
COUNT 1 1 1
WIDTH 1129
HEIGHT 1
VIEWPOINT 0 0 0 1 0 0 0
POINTS 1129
DATA ascii
0.41132811 0.036111932 0.060919933
0.4113152 0.037885744 0.060890254
0.41130233 0.039659552 0.060860578
0.41128945 0.041433364 0.060830899
0.41127655 0.043207176 0.060801219
0.41091046 0.02525017 0.058777541
0.41264361 0.027231228 0.059828628
0.41263074 0.029005036 0.059798948
0.41261783 0.030778849 0.059769273
0.41260496 0.032552656 0.059739593
0.41259208 0.034326471 0.059709914
0.41432545 0.036283579 0.060761433
0.4143126 0.038053393 0.060731821
0.41429973 0.039823223 0.060702212
0.41428688 0.041593041 0.0606726
0.41427404 0.043362863 0.060642987
0.41426116 0.045132682 0.060613375
0.41424832 0.046902504 0.060583767
0.4168551 0.048905376 0.0621766
0.41684228 0.050669212 0.062147088
0.41680384 0.055960715 0.062058557
0.41679102 0.05772455 0.062029045
0.41217726 0.023460684 0.057564814
0.41390759 0.025445761 0.058618609
0.41389471 0.027219575 0.058588933
0.41388181 0.028993383 0.058559254
0.41386893 0.030767199 0.058529574
0.41385603 0.032541007 0.058499899
0.41384315 0.034314819 0.058470219
0.41557372 0.036271956 0.05952454
0.41556084 0.03804177 0.059494928
0.415548 0.0398116 0.059465315
0.41553515 0.041581418 0.059435703
0.41552228 0.04335124 0.059406094
0.41550943 0.045121059 0.059376482
0.41811195 0.047129955 0.060973391
0.41809914 0.048893787 0.060943879
0.41808632 0.050657626 0.060914367
0.41981721 0.052568872 0.061969444
0.41980442 0.054328721 0.061939999
0.41804788 0.055949125 0.060825836
0.41977885 0.057848405 0.06188111
0.41976607 0.059608251 0.061851665
0.41800943 0.061240632 0.060737301
0.41799662 0.063004464 0.060707793
0.4179838 0.064768299 0.060678281
0.41517156 0.023660302 0.057408594
0.41515866 0.025434108 0.057378914
0.41514578 0.027207924 0.057349235
0.41513291 0.02898173 0.057319559
0.41512001 0.030755546 0.05728988
0.41510713 0.032529354 0.057260204
0.41509423 0.03430317 0.057230525
0.41682199 0.036260329 0.058287632
0.41680911 0.038030144 0.058258019
0.41679627 0.039799973 0.058228411
0.41678339 0.041569792 0.058198798
0.41677055 0.043339614 0.058169186
0.41675767 0.045109432 0.058139578
0.41935599 0.047118369 0.05974067
0.41934317 0.048882201 0.059711158
0.42107123 0.05079747 0.060768958
0.42105845 0.052557312 0.060739513
0.42104566 0.054317158 0.060710069
0.42103288 0.056077003 0.060680624
0.42102009 0.057836846 0.060651179
0.42100731 0.059596691 0.060621735
0.42099452 0.061356533 0.06059229
0.42098173 0.063116379 0.060562849
0.42096895 0.064876221 0.060533404
0.41921502 0.066520549 0.059416048
0.41642264 0.023648649 0.056168906
0.41640973 0.025422458 0.056139231
0.41639686 0.027196271 0.056109551
0.41638398 0.028970079 0.056079872
0.41637108 0.030743895 0.056050196
0.41809598 0.032709058 0.057109948
0.4180831 0.03447888 0.05708034
0.41807026 0.036248703 0.057050727
0.41805738 0.038018517 0.057021115
0.41804454 0.039788347 0.056991503
0.41803166 0.041558165 0.056961894
0.42062566 0.043579109 0.058566973
0.42061284 0.045342948 0.058537461
0.42060003 0.047106784 0.058507949
0.42232525 0.049026065 0.059568472
0.42231247 0.050785907 0.059539028
0.42229968 0.052545752 0.059509583
0.4222869 0.054305598 0.059480138
0.42227411 0.056065444 0.059450693
0.42226133 0.057825286 0.059421249
0.42224854 0.059585132 0.059391804
0.42223573 0.061344974 0.059362359
0.42222294 0.063104816 0.059332915
0.42221016 0.064864665 0.05930347
0.42219737 0.066624507 0.059274029
0.42218459 0.068384349 0.059244584
0.41767371 0.023636999 0.054929212
0.41766083 0.025410805 0.054899532
0.41764793 0.02718462 0.054869857
0.41763505 0.028958427 0.054840177
0.41762215 0.030732242 0.054810498
0.41934422 0.032697435 0.055873044
0.41933137 0.034467258 0.055843432
0.4193185 0.03623708 0.055813819
0.41930565 0.038006894 0.055784211
0.41929281 0.039776724 0.055754598
0.41927993 0.041546542 0.055724986
0.4218697 0.043567523 0.057334252
0.42185688 0.045331359 0.05730474
0.42184407 0.047095198 0.057275228
0.42356646 0.049014505 0.058338542
0.42355368 0.050774347 0.058309097
0.42527613 0.052681684 0.059372567
0.42526338 0.054437533 0.059343189
0.42525062 0.056193389 0.059313811
0.42350253 0.057813726 0.058191318
0.42348975 0.059573568 0.058161873
0.42347696 0.061333414 0.058132429
0.42346418 0.06309326 0.058102984
0.42345139 0.064853102 0.058073539
0.42343861 0.066612951 0.058044095
0.42342582 0.068372793 0.058014654
0.42341304 0.070132636 0.057985209
0.41460782 0.02131314 0.050982725
0.41719285 0.023413973 0.052594882
0.4189119 0.025399154 0.053659838
0.41889903 0.027172968 0.053630162
0.41888613 0.028946776 0.053600483
0.41887325 0.03072059 0.053570803
0.41886035 0.0324944 0.053541128
0.41884747 0.034268212 0.053511448
0.42056677 0.036225453 0.054576915
0.42055392 0.037995268 0.054547302
0.42054105 0.039765097 0.054517694
0.4205282 0.041534916 0.054488081
0.42311373 0.043555938 0.056101531
0.42310092 0.045319773 0.056072019
0.4230881 0.047083613 0.056042507
0.4248077 0.049002945 0.057108607
0.42479491 0.050762787 0.057079166
0.42651454 0.052670151 0.058145422
0.42650178 0.054426 0.058116045
0.42648903 0.056181855 0.058086667
0.42647627 0.057937708 0.05805729
0.42646351 0.059693564 0.058027912
0.42645076 0.061449416 0.057998534
0.426438 0.063205272 0.057969157
0.42469263 0.064841546 0.056843609
0.42467985 0.066601388 0.056814164
0.42466706 0.06836123 0.056784719
0.42465428 0.070121072 0.056755278
0.42290869 0.071777292 0.05562935
0.42029676 0.073391683 0.053955078
0.41242072 0.019078882 0.047571283
0.41413683 0.021086037 0.048638705
0.41585299 0.023085212 0.049706221
0.41584003 0.024868993 0.049676374
0.41582707 0.026652783 0.04964653
0.41840798 0.028735703 0.051263161
0.42012432 0.030708939 0.052331109
0.42011145 0.032482747 0.052301429
0.42009854 0.034256563 0.052271754
0.42008567 0.036030367 0.052242074
0.42180219 0.037983641 0.053310398
0.42178932 0.039753471 0.053280786
0.42177647 0.041523289 0.053251177
0.4217636 0.043293111 0.053221565
0.42434499 0.045308188 0.054839298
0.42433217 0.047072023 0.054809786
0.42431936 0.048835859 0.054780275
0.42603615 0.050751228 0.055849232
0.42602336 0.05251107 0.055819791
0.42774019 0.054414466 0.056888904
0.42772743 0.056170322 0.056859527
0.42771468 0.057926174 0.056830149
0.42770192 0.05968203 0.056800772
0.42768916 0.061437882 0.056771394
0.42767641 0.063193738 0.056742016
0.42766365 0.064949587 0.056712639
0.42592105 0.066589825 0.055584233
0.42590827 0.068349674 0.055554789
0.42416555 0.070001878 0.054426141
0.42155787 0.071610242 0.052747782
0.421545 0.07338006 0.052718174
0.41368446 0.019067112 0.046319034
0.41539776 0.021074293 0.047389247
0.4153848 0.022862067 0.047359336
0.41537181 0.024649851 0.047329422
0.4170852 0.026641065 0.048399862
0.41707224 0.028424855 0.048370015
0.41964895 0.030501824 0.049990941
0.41963604 0.032279626 0.049961198
0.41962314 0.034057431 0.049931452
0.42133674 0.036018718 0.051002391
0.42132384 0.03779253 0.050972711
0.42131096 0.039566338 0.050943032
0.42129806 0.04134015 0.050913356
0.42301187 0.043281484 0.051984668
0.42299899 0.045051303 0.051955059
0.42298615 0.046821125 0.051925447
0.42297328 0.048590947 0.051895835
0.42555058 0.050588109 0.053518042
0.42726457 0.05249951 0.054589856
0.42725179 0.05425936 0.054560415
0.42896587 0.056158789 0.055632386
0.42895308 0.057914641 0.055603009
0.42894033 0.059670497 0.055573631
0.42892757 0.061426345 0.055544253
0.42718786 0.063058577 0.054413192
0.42717507 0.064818427 0.054383747
0.42716229 0.066578269 0.054354303
0.4271495 0.068338111 0.054324858
0.42540962 0.069990292 0.05319342
0.42280611 0.071598612 0.051510889
0.42106611 0.073268749 0.05037915
0.41932604 0.074946873 0.049247321
0.41065261 0.016705031 0.042339724
0.41236302 0.018726204 0.043412484
0.41493517 0.02084711 0.045036815
0.41664571 0.022850325 0.046109885
0.41663271 0.024638107 0.046079975
0.41661972 0.026425881 0.046050061
0.41833034 0.028413137 0.047123354
0.41831738 0.030196927 0.047093511
0.41830441 0.031980708 0.047063664
0.42087701 0.034045756 0.048688967
0.42258781 0.036007065 0.049762692
0.42257494 0.037780881 0.049733017
0.42256203 0.039554685 0.049703337
0.42254916 0.041328497 0.049673658
0.42253625 0.043102309 0.049643982
0.42252338 0.044876121 0.049614303
0.42423442 0.046809502 0.050688539
0.42422155 0.048579324 0.05065893
0.4242087 0.050349139 0.050629318
0.4267818 0.052340355 0.052255813
0.42676899 0.05410419 0.052226301
0.42848024 0.056007642 0.053301036
0.42846745 0.057767484 0.053271595
0.42845467 0.05952733 0.053242151
0.42844188 0.061287172 0.053212706
0.4284291 0.063047014 0.053183261
0.42841631 0.064806864 0.053153817
0.42840353 0.066566706 0.053124372
0.42839074 0.068326548 0.053094927
0.42665365 0.069978707 0.051960699
0.42405438 0.071586989 0.050273981
0.42231718 0.073257096 0.049139455
0.42057994 0.07493519 0.048004836
0.41192341 0.016693195 0.041080501
0.41363099 0.018714394 0.042156059
0.41619894 0.020835342 0.043784566
0.41618592 0.022627108 0.043754589
0.41617289 0.024418876 0.043724608
0.41788065 0.026414137 0.044800602
0.41786769 0.028201921 0.044770692
0.41957548 0.03018521 0.045846839
0.41956255 0.031968992 0.045816995
0.41954958 0.03375278 0.045787152
0.42211801 0.035811875 0.047416735
0.42210507 0.037589677 0.047386989
0.42381313 0.039543036 0.048463643
0.42380023 0.041316845 0.048433963
0.42378736 0.043090656 0.048404284
0.42377445 0.044864468 0.048374608
0.42548269 0.046797875 0.049451634
0.42546982 0.048567697 0.049422022
0.42545697 0.050337516 0.049392413
0.4254441 0.052107338 0.049362801
0.42801303 0.054092605 0.05099358
0.42800021 0.055856436 0.050964069
0.42970869 0.057755925 0.052041661
0.4296959 0.059515771 0.05201222
0.42968312 0.061275613 0.051982775
0.42967033 0.063035458 0.051953331
0.42965752 0.0647953 0.051923886
0.42964473 0.06655515 0.051894441
0.42963195 0.068314992 0.051864997
0.42789769 0.069967113 0.050727978
0.42530265 0.071575366 0.049037077
0.42356825 0.073245451 0.04789976
0.42183384 0.074923515 0.046762351
0.42182091 0.076701321 0.046732605
0.41319418 0.01668136 0.039821286
0.4131811 0.018483102 0.039791141
0.41488591 0.020500343 0.040869556
0.41744965 0.02261534 0.042502347
0.41743663 0.024407107 0.04247237
0.41914159 0.026402395 0.043551151
0.4191286 0.028190177 0.04352124
0.4191156 0.029977951 0.04349133
0.41910264 0.031765733 0.043461416
0.42080769 0.033741064 0.04454048
0.42079473 0.035524853 0.044510636
0.42335898 0.037577998 0.046144515
0.42334604 0.0393558 0.046114773
0.42333314 0.041133597 0.046085026
0.42332023 0.042911403 0.04605528
0.42502555 0.044852816 0.047134914
0.42501265 0.046626627 0.047105234
0.42499977 0.048400439 0.047075555
0.42498687 0.050174251 0.047045879
0.42669237 0.052095711 0.048125897
0.42667952 0.053865533 0.048096284
0.42924425 0.055844851 0.049731348
0.42923144 0.057608686 0.049701836
0.42921862 0.059372518 0.049672324
0.42920581 0.061136357 0.049642812
0.43091154 0.063023895 0.0507234
0.43089876 0.064783745 0.050693955
0.43088597 0.066543587 0.050664511
0.42915455 0.068191692 0.049524769
0.42914173 0.069955528 0.049495257
0.42655092 0.071563736 0.047800172
0.42481932 0.073233798 0.046660062
0.42480645 0.07500761 0.046630386
0.42307481 0.076689638 0.045490131
0.40591648 0.01190865 0.033067096
0.4084757 0.014071586 0.034703314
0.41275001 0.016446037 0.037450898
0.41445187 0.018471267 0.038531926
0.41443878 0.020273017 0.03850178
0.41614079 0.022286283 0.039583053
0.41870037 0.024395337 0.041220132
0.41868734 0.026187105 0.041190151
0.42038953 0.028178433 0.042271782
0.42037654 0.029966209 0.042241868
0.42036358 0.031753991 0.042211957
0.42035058 0.033541765 0.042182043
0.42033759 0.035329539 0.042152133
0.4220399 0.037296925 0.043234129
0.42202693 0.039080709 0.043204285
0.42458704 0.041121922 0.044842541
0.42457411 0.042899724 0.044812795
0.4245612 0.044677529 0.044783052
0.42626372 0.046614975 0.045865551
0.42625085 0.048388787 0.045835871
0.42623794 0.050162598 0.045806192
0.42622507 0.05193641 0.045776516
0.42792776 0.053853907 0.046859376
0.42791492 0.055623725 0.046829768
0.43047547 0.057597101 0.048469115
0.43046266 0.059360933 0.048439603
0.43044984 0.061124768 0.048410092
0.43043703 0.0628886 0.04838058
0.43042421 0.064652435 0.048351072
0.4304114 0.066416278 0.04832156
0.43039858 0.068180107 0.048292048
0.42781204 0.069782287 0.046592876
0.4277992 0.071552113 0.046563264
0.42607039 0.073222145 0.045420378
0.42605752 0.074995957 0.045390699
0.42604464 0.076769769 0.045361023
0.42431578 0.078455761 0.044217899
0.40721455 0.010074984 0.03182441
0.40976954 0.01224394 0.033464715
0.40975633 0.014059658 0.033434335
0.41402358 0.016434176 0.036188893
0.41401047 0.01823991 0.036158681
0.41399735 0.020045646 0.036128469
0.41569647 0.022062924 0.03721242
0.41568339 0.023864666 0.037182275
0.41738266 0.025869988 0.038266461
0.41993809 0.02796711 0.039907925
0.41992506 0.029758878 0.039877944
0.41991204 0.031550646 0.039847966
0.41989905 0.033342414 0.039817989
0.42159849 0.035317797 0.040902685
0.42158553 0.037105579 0.040872771
0.42157254 0.038893353 0.040842861
0.42327207 0.040852781 0.04192777
0.42325911 0.04263657 0.041897926
0.42324618 0.044420354 0.041868079
0.42323321 0.046204146 0.041838236
0.42578927 0.048221454 0.043481074
0.42577636 0.049999256 0.043451332
0.42747614 0.051924758 0.044536818
0.42746326 0.05369857 0.044507142
0.42745036 0.055472381 0.044477463
0.42915031 0.057381921 0.045563251
0.42913747 0.059151739 0.045533638
0.42912459 0.060921561 0.045504026
0.42911175 0.062691383 0.045474418
0.4290989 0.064461201 0.045444805
0.42908603 0.066231027 0.045415193
0.42907318 0.068000846 0.045385581
0.42906031 0.069770664 0.045355972
0.42904747 0.07154049 0.04532636
0.42732149 0.073210493 0.044180684
0.42730859 0.074984305 0.044151004
0.42729571 0.076758116 0.044121325
0.42556968 0.078444086 0.042975415
0.42298695 0.080096103 0.04127118
0.42126077 0.081800036 0.040124979
0.40851265 0.0082413191 0.030581726
0.40849942 0.010063018 0.030551247
0.40848619 0.011884717 0.030520769
0.41103697 0.014047732 0.032165356
0.41273311 0.016086981 0.033251733
0.41528407 0.018228048 0.034896675
0.41527095 0.020033784 0.034866463
0.41525784 0.02183952 0.034836251
0.41695416 0.023852831 0.03592306
0.41865063 0.025858179 0.037010036
0.41863754 0.027655929 0.036979958
0.4211888 0.029747108 0.038625706
0.42117581 0.031538878 0.038595729
0.42116278 0.033330642 0.038565747
0.42114976 0.035122409 0.03853577
0.42284647 0.037093837 0.039623313
0.42283347 0.038881611 0.039593399
0.42282048 0.040669393 0.039563488
0.42280748 0.042457171 0.039533578
0.42279449 0.044244945 0.039503664
0.42449132 0.046192426 0.040591575
0.42447835 0.047976214 0.040561732
0.42703024 0.049987577 0.042208858
0.42701733 0.051765379 0.042179111
0.42871433 0.053686917 0.043267444
0.42870146 0.055460729 0.043237768
0.43039858 0.057370298 0.044326343
0.43038574 0.059140116 0.044296734
0.43037286 0.060909938 0.044267122
0.43036002 0.06267976 0.044237509
0.43034714 0.064449579 0.044207897
0.4303343 0.066219397 0.044178288
0.43032143 0.067989223 0.044148676
0.43030858 0.069759041 0.044119064
0.43029574 0.071528859 0.044089455
0.42857257 0.07319884 0.042940985
0.42855969 0.074972652 0.04291131
0.42854679 0.076746464 0.04288163
0.42682356 0.078432404 0.041732937
0.42424506 0.080084391 0.040024519
0.42252171 0.081788287 0.038875517
0.40810436 0.0061641308 0.028219853
0.40809107 0.0079898229 0.028189307
0.40978426 0.010051052 0.029278094
0.40977103 0.011872751 0.029247615
0.40975779 0.01369445 0.029217135
0.41401094 0.01607508 0.031985544
0.41399777 0.017886804 0.031955231
0.41654456 0.020021923 0.033604462
0.41653141 0.021827659 0.03357425
0.4165183 0.023633393 0.033544037
0.41650519 0.025439128 0.033513825
0.41990551 0.02764412 0.035723533
0.41989246 0.029441876 0.035693455
0.41987941 0.031239634 0.035663374
0.42242652 0.033318873 0.03731351
0.4224135 0.035110641 0.037283529
0.42240047 0.036902409 0.037253551
0.42409438 0.038869865 0.038343951
0.42408141 0.040657651 0.038314037
0.42406842 0.042445429 0.038284127
0.42405543 0.044233203 0.038254216
0.42404243 0.046020981 0.038224302
0.42573649 0.047964495 0.03931506
0.42572352 0.049748287 0.039285216
0.4282712 0.0517537 0.040936626
0.4282583 0.053531505 0.04090688
0.42995253 0.055449076 0.041998073
0.42993963 0.057222888 0.041968394
0.42992675 0.0589967 0.041938715
0.43162113 0.060898311 0.043030225
0.43160826 0.06266813 0.043000616
0.43159541 0.064437948 0.042971004
0.43158254 0.066207774 0.042941391
0.4315697 0.067977592 0.042911779
0.43155682 0.069747411 0.042882171
0.43154398 0.071517237 0.042852558
0.42982364 0.073187187 0.041701291
0.42981076 0.074960999 0.041671611
0.42979789 0.076734811 0.041641936
0.42807746 0.078420728 0.040490452
0.42550319 0.080072671 0.038777851
0.42549023 0.081856459 0.038748004
0.42206201 0.083488405 0.036474109
0.409392 0.0061521381 0.026943911
0.40937874 0.0079778302 0.026913363
0.40936548 0.0098035149 0.026882818
0.41105589 0.011860784 0.027974451
0.41104266 0.013682484 0.027943972
0.41358504 0.015839588 0.02959702
0.4152756 0.017874904 0.030689042
0.41526243 0.019686621 0.030658729
0.41524926 0.021498345 0.030628417
0.4177919 0.023621531 0.032282032
0.41777879 0.025427267 0.03225182
0.41946957 0.027432652 0.033344332
0.41945645 0.029234402 0.033314187
0.41944337 0.031036144 0.033284042
0.42113429 0.033025574 0.034376871
0.42112124 0.034823332 0.034346793
0.42366424 0.036890641 0.036001302
0.42365122 0.038682409 0.035971325
0.42363819 0.040474184 0.035941344
0.42532936 0.042433683 0.037034668
0.42531636 0.044221461 0.037004754
0.42530337 0.046009239 0.036974844
0.42529038 0.047797017 0.03694493
0.42698163 0.049736567 0.038038556
0.42696866 0.051520355 0.038008709
0.4269557 0.053304143 0.037978865
0.42949927 0.055297624 0.039634652
0.42948636 0.05707543 0.039604906
0.43117782 0.058985047 0.04069902
0.43116495 0.060758859 0.040669341
0.43115205 0.062532671 0.040639665
0.43113917 0.064306483 0.040609986
0.4311263 0.066080287 0.040580306
0.43281797 0.067965969 0.041674875
0.43280509 0.069735788 0.041645262
0.43279225 0.071505614 0.041615654
0.43107474 0.073175535 0.040461596
0.43106183 0.074949346 0.040431917
0.43104896 0.076723158 0.040402237
0.42933136 0.078409046 0.039247967
0.4267613 0.080060951 0.03753119
0.42674834 0.08184474 0.037501346
0.42332575 0.083476633 0.03522186
0.41067967 0.0061401455 0.025667956
0.41066641 0.0079658376 0.025637411
0.41065314 0.0097915223 0.025606865
0.41063988 0.011617214 0.02557632
0.41062662 0.013442907 0.025545772
0.41231427 0.015492209 0.02664033
0.41485247 0.01764337 0.028297672
0.41483927 0.01945908 0.028267294
0.41652709 0.021486444 0.029362228
0.41651392 0.023298169 0.029331915
0.41650075 0.025109885 0.029301604
0.41903925 0.027221141 0.030959604
0.41902614 0.029026875 0.030929392
0.42071414 0.031024309 0.032024827
0.42070106 0.032826051 0.031994682
0.42238921 0.034811523 0.03309036
0.42237616 0.036609281 0.033060279
0.42491496 0.038670637 0.034719083
0.42490193 0.040462412 0.034689106
0.42488891 0.042254176 0.034659125
0.42487592 0.044045947 0.034629147
0.42486289 0.045837715 0.03459917
0.42655131 0.047785275 0.035695482
0.42653832 0.049573053 0.035665572
0.42652532 0.051360831 0.035635658
0.42821383 0.053292427 0.036732193
0.42820087 0.055076212 0.03670235
0.42818791 0.05686 0.036672506
0.43072733 0.058841553 0.038332686
0.43241602 0.060747206 0.039429657
0.43240312 0.062521018 0.039399978
0.43239024 0.06429483 0.039370302
0.43237737 0.066068642 0.039340623
0.43236446 0.067842454 0.039310943
0.43405336 0.069724165 0.040408358
0.43233868 0.07139007 0.039251588
0.43232581 0.073163882 0.039221909
0.43231291 0.074937694 0.039192233
0.43230003 0.076711506 0.039162554
0.43058524 0.078397371 0.038005494
0.42801943 0.080049239 0.036284521
0.42800647 0.081833027 0.036254674
0.42458948 0.083464861 0.033969622
0.42457649 0.085256629 0.033939641
0.4094204 0.0057627461 0.022700608
0.41195408 0.007953845 0.024361458
0.41194081 0.0097795296 0.024330912
0.41192755 0.011605222 0.024300365
0.41191429 0.013430914 0.024269819
0.41190103 0.015256598 0.024239274
0.41358587 0.017301941 0.025336698
0.41357264 0.019123642 0.025306217
0.41610673 0.021262871 0.026967935
0.41779172 0.023286268 0.028065726
0.41777858 0.025097985 0.028035415
0.42031285 0.02720928 0.029697601
0.42029974 0.029015014 0.029667387
0.4202866 0.03082075 0.029637175
0.42027348 0.032626484 0.029606963
0.42195874 0.034615967 0.030705322
0.42194566 0.036417708 0.030675177
0.42363104 0.038395219 0.031773776
0.42361799 0.040192977 0.031743698
0.42360494 0.041990735 0.03171362
0.42613965 0.044034179 0.033376899
0.42612663 0.045825947 0.033346921
0.42611361 0.047617715 0.03331694
0.42779925 0.049561307 0.03441612
0.42778626 0.051349089 0.03438621
0.42777327 0.053136867 0.034356296
0.42776027 0.054924645 0.034326386
0.42944601 0.056848284 0.035425846
0.43198124 0.058829874 0.037090201
0.4319683 0.060607679 0.037060454
0.4319554 0.062385477 0.037030712
0.43364131 0.064283177 0.038130604
0.43362844 0.066056989 0.038100928
0.43361554 0.067830801 0.038071249
0.43360266 0.069604613 0.038041569
0.43358979 0.071378417 0.038011894
0.43357688 0.073152237 0.037982214
0.43356401 0.074926041 0.037952535
0.4335511 0.076699853 0.037922859
0.43183914 0.078385696 0.036763009
0.42927754 0.080037519 0.03503786
0.42926458 0.081821308 0.035008017
0.42585325 0.083453096 0.032717369
0.42584023 0.085244864 0.032687392
0.42327839 0.086934596 0.030961653
0.41071227 0.0057507143 0.021420481
0.41069898 0.0075823879 0.021389835
0.41068566 0.0094140619 0.021359187
0.41321522 0.011593229 0.023024423
0.41320196 0.013418921 0.022993876
0.4131887 0.015244606 0.02296333
0.41317543 0.017070297 0.022932785
0.41316217 0.018895982 0.022902239
0.41484427 0.020933375 0.024002574
0.41483104 0.022755073 0.023972096
0.41736096 0.024882363 0.025638198
0.41904321 0.026897809 0.026738914
0.41903007 0.028709525 0.026708601
0.4215602 0.030808888 0.028375171
0.42154709 0.032614622 0.028344959
0.42153397 0.03442036 0.028314747
0.42321643 0.036405873 0.029415961
0.42320335 0.038207624 0.029385816
0.42319027 0.040009364 0.029355671
0.42487288 0.041978925 0.030457195
0.42485982 0.04377668 0.030427117
0.42484677 0.04557443 0.030397039
0.42737734 0.047605943 0.032064702
0.42736435 0.049397711 0.032034725
0.4290472 0.051337343 0.033136748
0.4290342 0.053125121 0.033106837
0.42902121 0.054912899 0.033076923
0.42900822 0.05670068 0.033047013
0.43069118 0.058620352 0.03414933
0.4332222 0.060596 0.03581797
0.4332093 0.062373798 0.035788227
0.43319637 0.0641516 0.03575848
0.43318346 0.065929405 0.035728734
0.43486664 0.067819148 0.036831554
0.43485373 0.06959296 0.036801875
0.43484086 0.071366772 0.036772195
0.43482795 0.073140584 0.03674252
0.43481508 0.074914396 0.03671284
0.43310595 0.076596215 0.035550267
0.43309304 0.078374013 0.03552052
0.43053564 0.0800258 0.033791192
0.42882636 0.081729569 0.032628249
0.42711699 0.083441325 0.031465132
0.42710397 0.085233092 0.031435154
0.42454636 0.086922787 0.029705228
0.42453328 0.088720545 0.02967515
0.41031185 0.0054950207 0.019007193
0.41029853 0.0073306877 0.01897648
0.41197756 0.0094020301 0.02007905
0.41196424 0.011233704 0.020048402
0.41195095 0.013065385 0.020017756
0.41193762 0.014897059 0.01998711
0.4144631 0.017058305 0.021656832
0.41444984 0.01888399 0.021626284
0.41443658 0.020709682 0.021595739
0.41442332 0.022535367 0.021565193
0.41441005 0.024361059 0.021534648
0.41608942 0.026386498 0.022637974
0.41861522 0.028501863 0.024308462
0.42029473 0.030509349 0.025412099
0.42028156 0.032321073 0.025381787
0.42026839 0.03413279 0.025351476
0.42279443 0.036214232 0.027022531
0.42278132 0.038019974 0.026992319
0.42276821 0.039825704 0.026962107
0.42275509 0.041631438 0.026931895
0.42443484 0.043601021 0.028036166
0.42442176 0.045402769 0.028006021
0.42440867 0.047204513 0.027975876
0.4260886 0.049158134 0.029080456
0.42607555 0.050955884 0.029050378
0.42860204 0.052969482 0.030722527
0.42858902 0.05476125 0.030692548
0.42857599 0.056553021 0.03066257
0.43025616 0.058476713 0.031767651
0.43024316 0.060264491 0.031737741
0.43023017 0.062052269 0.031707827
0.4319104 0.063960001 0.032813136
0.43189743 0.065743789 0.032783289
0.43188447 0.067527577 0.032753445
0.43441153 0.069473334 0.034426771
0.43439859 0.071251132 0.034397025
0.43438569 0.07302893 0.034367282
0.43437275 0.074806735 0.034337536
0.43435985 0.07658454 0.034307793
0.43180671 0.078230299 0.032574374
0.43179375 0.080014087 0.032544531
0.4300873 0.081717826 0.031378798
0.42838073 0.083429553 0.030212892
0.4283677 0.08522132 0.030182913
0.4258143 0.086910978 0.028448805
0.42580125 0.088708736 0.028418725
0.42578819 0.090506494 0.028388647
0.40907228 0.0051174378 0.016020324
0.4090589 0.0069590942 0.015989512
0.41157988 0.0091542965 0.017662849
0.41156656 0.010989963 0.017632136
0.4115532 0.01282563 0.017601423
0.41153988 0.014661289 0.01757071
0.4132162 0.0167167 0.018676337
0.41320291 0.018548375 0.018645691
0.41572425 0.020697689 0.020319786
0.41571099 0.022523373 0.02028924
0.41569772 0.024349065 0.020258693
0.41568446 0.02617475 0.020228148
0.41736105 0.028196231 0.021334331
0.41988266 0.030305646 0.023009105
0.41986948 0.032121364 0.022978725
0.42154622 0.034120891 0.024085287
0.42153305 0.035932615 0.024054974
0.42151988 0.03774434 0.024024662
0.42404181 0.039813843 0.025700102
0.42402866 0.041619577 0.02566989
0.42401555 0.04342531 0.025639677
0.42400244 0.045231052 0.025609465
0.42567945 0.047192678 0.026716661
0.42566636 0.048994426 0.026686516
0.42565328 0.05079617 0.026656371
0.42733043 0.052741833 0.027763875
0.42731738 0.054539587 0.027733797
0.42730433 0.056337345 0.027703717
0.42982674 0.058333017 0.02938034
0.4315041 0.060252745 0.030488281
0.43149111 0.062040523 0.030458368
0.43147811 0.063828304 0.030428456
0.43146515 0.065616079 0.030398544
0.4331426 0.067515858 0.031506773
0.43312964 0.069299646 0.03147693
0.43311667 0.071083426 0.031447086
0.43310371 0.072867215 0.031417239
0.43309075 0.074651003 0.031387396
0.43307781 0.076434791 0.031357549
0.43306485 0.078218579 0.031327706
0.43136123 0.07991831 0.03015925
0.43134823 0.081706084 0.03012934
0.4296445 0.083417781 0.028960641
0.42963147 0.085209548 0.028930664
0.42961845 0.087001324 0.028900685
0.42706922 0.088696927 0.027162302
0.42705616 0.090494685 0.027132222
0.42704308 0.092292435 0.027102144
0.40615445 0.0044960626 0.011886358
0.40867105 0.0067072674 0.013563571
0.41034442 0.0087886453 0.014671597
0.41033104 0.010630294 0.014640783
0.41031766 0.01247195 0.01460997
0.41283458 0.014649231 0.016287783
0.41282126 0.016484898 0.01625707
0.41449478 0.018536342 0.017365552
0.41448149 0.020368017 0.017334906
0.41446817 0.02219969 0.01730426
0.41445488 0.024031365 0.017273614
0.4169721 0.026162758 0.018952204
0.41864589 0.028184265 0.020061178
0.41863266 0.030005964 0.0200307
0.41861942 0.031827662 0.020000219
0.42113692 0.033925146 0.021679368
0.42112371 0.035740856 0.021648988
0.42279771 0.037732437 0.022758473
0.42278454 0.039544161 0.02272816
0.42277136 0.041355886 0.022697847
0.42528915 0.043413449 0.024377674
0.42527604 0.04521919 0.024347462
0.4252629 0.047024924 0.02431725
0.42524979 0.048830662 0.024287038
0.42692405 0.050784335 0.025397146
0.42691097 0.052586079 0.025367001
0.42689788 0.054387826 0.025336854
0.4285723 0.056325536 0.026447283
0.42855924 0.058123287 0.026417205
0.43107745 0.060113017 0.028098123
0.43106446 0.061904784 0.028068144
0.43273905 0.063816562 0.029179007
0.43272606 0.065604337 0.029149095
0.43271306 0.067392118 0.029119182
0.43438777 0.069287926 0.03023026
0.43437481 0.071071714 0.030200414
0.43436185 0.072855502 0.030170569
0.43434888 0.074639291 0.030140724
0.43264812 0.076331005 0.028969625
0.43263513 0.078118786 0.028939713
0.43262213 0.07990656 0.028909801
0.43260917 0.081694342 0.028879888
0.43090823 0.083406016 0.027708402
0.43089521 0.085197784 0.027678424
0.43088219 0.086989552 0.027648445
0.42833719 0.088685118 0.025905866
0.42832413 0.090482876 0.025875788
0.42831105 0.092280626 0.02584571
0.40158033 0.0017652247 0.0066281063
0.40746039 0.0044838996 0.010592282
0.40997279 0.0066951434 0.012273679
0.40995938 0.0085407849 0.0122428
0.40994596 0.010386426 0.01221192
0.41161659 0.012459852 0.013322857
0.41160321 0.0143015 0.013292044
0.41411594 0.016472839 0.014974152
0.41410261 0.018308505 0.014943439
0.41577336 0.020355985 0.016054779
0.41576007 0.02218766 0.016024133
0.41574675 0.024019333 0.015993487
0.41573346 0.025851006 0.015962841
0.41824651 0.027976457 0.017645705
0.41823325 0.029802142 0.01761516
0.41990426 0.031815697 0.018727057
0.41989103 0.033637397 0.018696576
0.4198778 0.035459094 0.018666098
0.42239115 0.037544645 0.020349631
0.42406237 0.039532263 0.021461971
0.4240492 0.041343983 0.021431658
0.42403603 0.043155704 0.021401348
0.42402288 0.044967424 0.021371035
0.42400971 0.046779145 0.021340722
0.42652339 0.048818797 0.023025034
0.42651027 0.050624534 0.022994822
0.42649716 0.052430268 0.022964608
0.42648402 0.054236006 0.022934396
0.42815557 0.056177735 0.024047496
0.42982721 0.058111478 0.02516078
0.43234119 0.060101248 0.026845884
0.43232819 0.061893016 0.026815904
0.43231517 0.063684784 0.026785927
0.43230215 0.065476552 0.026755948
0.433974 0.067380376 0.027869724
0.433961 0.06916815 0.027839812
0.43394804 0.070955932 0.027809899
0.43393505 0.072743706 0.027779987
0.43392205 0.074531488 0.027750077
0.43390906 0.076319262 0.027720165
0.43389606 0.078107044 0.027690252
0.43388307 0.079894818 0.02766034
0.43387011 0.0816826 0.02763043
0.43217197 0.083394244 0.026456162
0.43215895 0.085186012 0.026426185
0.43214592 0.08697778 0.026396206
0.42960516 0.088673308 0.024649443
0.4295921 0.090471067 0.024619363
0.40708527 0.0042279698 0.0081538642
0.40875292 0.0063233674 0.0092672249
0.41126114 0.008528661 0.010952908
0.41124773 0.010374303 0.010922028
0.41123432 0.012219951 0.010891148
0.41122091 0.014065593 0.010860268
0.41288877 0.016131051 0.011974129
0.41287538 0.017972708 0.011943315
0.41538396 0.020132115 0.013629808
0.41537064 0.021967774 0.013599096
0.41703865 0.0240073 0.014713348
0.41702536 0.025838975 0.014682702
0.41953418 0.027964465 0.016369762
0.41952091 0.02979015 0.016339216
0.41950765 0.031615842 0.016308671
0.41949439 0.033441532 0.016278123
0.41948113 0.035267219 0.016247578
0.42114943 0.037268829 0.017362455
0.42365858 0.039348423 0.019050283
0.42364541 0.041164137 0.019019904
0.4236322 0.042979848 0.018989524
0.42530069 0.044955526 0.020104846
0.42528751 0.046767246 0.020074533
0.42527437 0.04857897 0.020044221
0.42778385 0.050612673 0.021732816
0.42777073 0.052418407 0.021702604
0.42775762 0.054224145 0.021672392
0.42774451 0.056029879 0.02164218
0.42941326 0.057967644 0.022758136
0.4310821 0.059897423 0.023874277
0.43106905 0.061695181 0.023844199
0.43357891 0.063673019 0.025533676
0.43356588 0.065464787 0.025503699
0.43355289 0.067256555 0.025473719
0.43522194 0.069156408 0.026590362
0.43520895 0.07094419 0.02656045
0.43519595 0.072731964 0.026530538
0.43518299 0.074519739 0.026500626
0.43516999 0.07630752 0.026470715
0.435157 0.078095302 0.026440803
0.43514401 0.079883076 0.026410891
0.43513101 0.081670858 0.026380979
0.43511802 0.083458632 0.026351068
0.43342268 0.08517424 0.025173934
0.43340969 0.086966008 0.025143955
0.43087313 0.088661499 0.023393018
0.43086004 0.090459257 0.02336294
0.41005889 0.0063112043 0.0079731476
0.41004542 0.0081628272 0.007942168
0.41254947 0.010362179 0.0096321246
0.41253605 0.012207828 0.0096012447
0.41252264 0.01405347 0.0095703648
0.41250923 0.015899111 0.009539485
0.41417432 0.01796061 0.010656213
0.41416094 0.019802259 0.010625401
0.41666535 0.021955715 0.012316167
0.41665202 0.023791382 0.012285455
0.41663867 0.025627049 0.012254742
0.41830394 0.027658617 0.013371929
0.41829062 0.02949029 0.013341282
0.41827729 0.031321965 0.013310635
0.418264 0.033153646 0.013279989
0.4207688 0.035255224 0.014971625
0.42075554 0.037080918 0.014941079
0.42242104 0.03907856 0.016058812
0.42240781 0.04090026 0.016028333
0.42239457 0.042721953 0.015997853
0.42489964 0.044783637 0.017690167
0.42488647 0.046599347 0.017659787
0.42487326 0.048415061 0.017629409
0.426539 0.050378788 0.018747719
0.42652586 0.052190509 0.018717408
0.42903122 0.05421228 0.020410378
0.42901811 0.056018017 0.020380165
0.429005 0.057823755 0.020349953
0.43067095 0.059757553 0.021468775
0.43233702 0.061683372 0.022587774
0.43232393 0.063481122 0.022557694
0.43231088 0.06527888 0.022527616
0.43481663 0.067244783 0.02422148
0.43480361 0.069036551 0.024191501
0.43479058 0.070828319 0.024161523
0.43645689 0.072720222 0.025281077
0.4364439 0.074507996 0.025251167
0.43643093 0.076295778 0.025221255
0.43641794 0.078083552 0.025191342
0.43640494 0.079871334 0.02516143
0.43639195 0.081659108 0.02513152
0.43637896 0.08344689 0.025101608
0.43636596 0.085234664 0.025071695
0.436353 0.087022446 0.025041783
0.4346604 0.088746011 0.023861738
0.43212801 0.090447448 0.022106515
0.41381097 0.015886987 0.008249593
0.41379756 0.017732628 0.0082187131
0.41378415 0.019578269 0.0081878332
0.41544646 0.021631811 0.0093074851
0.41543308 0.023473466 0.0092766713
0.4154197 0.025315115 0.0092458585
0.41792002 0.027450658 0.010941111
0.4179067 0.029286325 0.010910398
0.41789335 0.031121984 0.010879685
0.41788003 0.032957651 0.010848972
0.41954258 0.034973286 0.011969205
0.41952929 0.036804963 0.011938559
0.41951597 0.038636629 0.011907913
0.42201668 0.040720299 0.013604034
0.42200342 0.042545985 0.013573487
0.42199016 0.044371676 0.013542942
0.42197686 0.046197362 0.013512395
0.42363971 0.048175085 0.014633263
0.4261407 0.050218847 0.01633005
0.42612752 0.052034557 0.016299672
0.42779049 0.053990331 0.017420907
0.42777735 0.055802051 0.017390594
0.42776418 0.057613775 0.017360281
0.43026546 0.059617627 0.019057738
0.43025234 0.061423365 0.019027526
0.43191555 0.06334921 0.02014927
0.43190247 0.065150954 0.020119125
0.43188936 0.066952698 0.02008898
0.43355274 0.06886258 0.021211024
0.43353966 0.07066033 0.021180946
0.43604133 0.072608322 0.022879295
0.4360283 0.07440009 0.022849316
0.43601528 0.076191857 0.022819337
0.43600225 0.077983625 0.022789359
0.43766588 0.079859592 0.023911981
0.43765289 0.081647366 0.023882069
0.43763989 0.083435148 0.023852158
0.4376269 0.085222922 0.023822246
0.4376139 0.087010704 0.023792334
0.43592414 0.088734239 0.022609487
0.41671863 0.025303017 0.0079587456
0.41670525 0.027144665 0.0079279328
0.4166919 0.028986314 0.00789712
0.41667852 0.030827969 0.0078663062
0.41917473 0.032945592 0.0095660444
0.41916141 0.034781259 0.0095353313
0.41914806 0.036616925 0.0095046181
0.42080787 0.038624596 0.010627786
0.42079455 0.040456269 0.010597139
0.42329106 0.042533994 0.012297545
0.4232778 0.04435968 0.012266998
0.42326453 0.046185371 0.012236453
0.42325127 0.048011057 0.012205906
0.42491132 0.049984816 0.01332962
0.42740816 0.052022628 0.015030693
0.42739496 0.053838342 0.015000314
0.42905515 0.055790149 0.016124405
0.42904201 0.057601873 0.016094092
0.43153906 0.059605766 0.017795734
0.43152595 0.061411504 0.017765522
0.43151283 0.063217238 0.01773531
0.43317324 0.065139115 0.018859912
0.43316016 0.066940866 0.018829767
0.43314704 0.068742611 0.01879962
0.43480763 0.070648521 0.019924521
0.43479457 0.072446279 0.019894443
0.43478152 0.07424403 0.019864364
0.43727902 0.076180086 0.021567097
0.43726599 0.077971861 0.02153712
0.437253 0.079763629 0.02150714
0.43723997 0.081555396 0.021477163
0.43722695 0.083347164 0.021447184
0.43888783 0.08521118 0.022572786
0.4372009 0.0869307 0.021387227
0.434677 0.088626072 0.019623734
0.42044276 0.036604866 0.0082217008
0.42042944 0.038440533 0.0081909876
0.42208645 0.040444236 0.0093170013
0.42207313 0.042275917 0.0092863543
0.42456546 0.044347689 0.010991045
0.4245522 0.046173379 0.010960499
0.42453894 0.047999065 0.010929953
0.42619619 0.049972847 0.012056456
0.42618296 0.051794548 0.012025977
0.42867559 0.053826414 0.013731335
0.42866239 0.055642124 0.013700956
0.43031982 0.057589974 0.014827903
0.43030664 0.059401695 0.014797592
0.43279955 0.061399642 0.016503517
0.43278641 0.063205376 0.016473304
0.43277329 0.065011114 0.016443092
0.43276018 0.066816844 0.01641288
0.43441784 0.068730772 0.017540406
0.43440473 0.070532523 0.017510261
0.43606254 0.07243447 0.018638019
0.43604946 0.074232228 0.018607941
0.43603641 0.076029979 0.018577861
0.43602335 0.077827737 0.018547783
0.43851674 0.079751857 0.020254901
0.43850371 0.081543624 0.020224923
0.43849069 0.083335392 0.020194944
0.43847767 0.08512716 0.020164965
0.43846464 0.086918935 0.020134987
0.42337832 0.040432207 0.0080368733
0.42336503 0.042263884 0.0080062272
0.42335171 0.044095557 0.0079755811
0.42583987 0.046161383 0.0096845459
0.42582661 0.047987074 0.0096539995
0.42748106 0.049960881 0.010783293
0.42746782 0.051782582 0.010752814
0.42745456 0.053604282 0.010722334
0.42994303 0.0556302 0.012431977
0.42992982 0.057445914 0.012401599
0.43158448 0.059389792 0.013531403
0.4315713 0.061201513 0.01350109
0.43406001 0.063193515 0.015211301
0.43404689 0.064999253 0.015181089
0.43403378 0.066804983 0.015150877
0.43402064 0.068610728 0.015120665
0.43400753 0.070416458 0.015090453
0.43566245 0.072322428 0.01622089
0.43564934 0.074124172 0.016190745
0.43730438 0.07601817 0.017321438
0.43729132 0.077815928 0.017291358
0.43727824 0.079613678 0.01726128
0.43976745 0.081531852 0.018972673
0.43975443 0.083323628 0.018942693
0.43974143 0.085115395 0.018912716
0.437226 0.086804703 0.017140964
0.42712754 0.046149392 0.0084086033
0.42711428 0.047975082 0.0083780568
0.42710102 0.049800768 0.0083475113
0.42875266 0.051770616 0.0094796605
0.42873943 0.053592313 0.0094491811
0.4287262 0.05541401 0.0094187018
0.43121046 0.057433985 0.011132619
0.43119729 0.059249699 0.011102241
0.43284914 0.061189614 0.012234901
0.43283597 0.063001335 0.012204589
0.43282279 0.064813063 0.012174277
0.43530735 0.066793121 0.013888872
0.43529424 0.068598866 0.01385866
0.43528113 0.070404597 0.013828448
0.43526801 0.072210334 0.013798236
0.43692014 0.074112333 0.014931531
0.43690702 0.075914085 0.014901386
0.43689394 0.077715829 0.014871241
0.43854624 0.079601869 0.016004845
0.43853316 0.081399627 0.015974766
0.4385201 0.083197378 0.015944688
0.43850705 0.084995136 0.01591461
0.43849397 0.086792894 0.01588453
0.43002427 0.053580347 0.0081760176
0.43001103 0.055402044 0.0081455382
0.4299978 0.057223741 0.0081150597
0.43247789 0.059237771 0.0098332725
0.43246472 0.061053481 0.0098028928
0.43411377 0.062989436 0.010938411
0.4341006 0.064801157 0.010908098
0.43408746 0.066612877 0.010877786
0.43407428 0.068424597 0.010847474
0.43655473 0.070392735 0.012566444
0.43654159 0.072198473 0.012536231
0.43652847 0.074004211 0.012506019
0.43651536 0.075809941 0.012475807
0.43816474 0.07770399 0.013612026
0.43815163 0.079505742 0.01358188
0.43980113 0.081387818 0.014718342
0.43978807 0.083185568 0.014688264
0.43977502 0.084983326 0.014658185
0.43373215 0.06285727 0.0085035358
0.43371895 0.064672984 0.008473156
0.43370578 0.066488691 0.0084427772
0.43535209 0.068412699 0.0095812846
0.43533894 0.070224419 0.0095509728
0.43781519 0.072186612 0.011274228
0.43780208 0.073992349 0.011244016
0.43778896 0.075798079 0.011213804
0.43777582 0.077603817 0.011183592
0.43942243 0.079493903 0.012322666
0.43940932 0.081295647 0.012292521
0.43939623 0.083097391 0.012262375
0.43938315 0.084899135 0.01223223
0.43903631 0.079397693 0.009891375
0.4390232 0.081203431 0.0098611629
0.43901008 0.083009161 0.0098309508
0.43899694 0.084814899 0.0098007387
0.44028366 0.0829973 0.0085689463
