# .PCD v0.7 - Point Cloud Data file format
VERSION 0.7
FIELDS x y z
SIZE 4 4 4
TYPE F F F
COUNT 1 1 1
WIDTH 1453
HEIGHT 1
VIEWPOINT 0 0 0 1 0 0 0
POINTS 1453
DATA ascii
0.56246728 0.10658771 0.24880092
0.56245792 0.10788065 0.24877928
0.56341505 0.10918657 0.2492075
0.56340569 0.11047752 0.2491859
0.56339633 0.11176847 0.2491643
0.56338692 0.11305942 0.24914271
0.56531078 0.11436035 0.25002107
0.56530142 0.11564731 0.24999952
0.56529206 0.11693427 0.24997799
0.56528276 0.11822123 0.24995646
0.5652734 0.11950819 0.24993493
0.56333065 0.12080513 0.24901311
0.56616539 0.12978493 0.25021306
0.56615603 0.13106988 0.25019154
0.56614667 0.13235486 0.25017005
0.56517053 0.13366476 0.24969807
0.56516117 0.13495173 0.24967654
0.56515181 0.13623868 0.24965501
0.56514245 0.13752565 0.24963348
0.56319934 0.13887845 0.24871072
0.56222308 0.14020433 0.24823846
0.56221366 0.14149727 0.24821684
0.56123728 0.14282912 0.24774446
0.56122786 0.14412406 0.24772279
0.56025153 0.1454619 0.24725033
0.56024206 0.14675884 0.24722864
0.55829865 0.14814956 0.24630524
0.55828923 0.14945048 0.24628347
0.55827975 0.15075141 0.24626172
0.55730325 0.15210521 0.24578895
0.55632675 0.15346301 0.24531616
0.55535018 0.15482479 0.24484332
0.55340654 0.15624943 0.24391936
0.55242985 0.15762119 0.24344631
0.4721064 0.17006479 0.20588213
0.47403005 0.17139764 0.20676
0.47401932 0.17287216 0.20673533
0.47400862 0.17434667 0.20671067
0.47399789 0.1758212 0.20668599
0.47205266 0.17745733 0.20575844
0.47204193 0.17893584 0.2057337
0.47203118 0.18041435 0.20570897
0.47202045 0.18189286 0.20568423
0.47200972 0.18337137 0.20565949
0.47199896 0.18484987 0.20563476
0.47198823 0.18632838 0.20561002
0.47197747 0.18780689 0.20558529
0.47196674 0.1892854 0.20556055
0.47195598 0.19076391 0.2055358
0.47194526 0.19224241 0.20551106
0.44768268 0.20546019 0.19403812
0.44767156 0.20698859 0.19401255
0.44766045 0.20851699 0.19398697
0.44764936 0.21004537 0.1939614
0.44667068 0.21169646 0.19348373
0.54810071 0.083784826 0.24105518
0.54809111 0.085109696 0.24103302
0.5490464 0.086481474 0.24146152
0.55000168 0.087849252 0.24189009
0.54999208 0.089170136 0.24186799
0.55191243 0.090572849 0.24274749
0.55479777 0.092006505 0.24407791
0.55671823 0.093391262 0.24495766
0.55767375 0.094733104 0.24538666
0.55862927 0.09607096 0.24581574
0.5586198 0.09737388 0.24579394
0.55957538 0.098705754 0.24622315
0.56149602 0.10006058 0.24710339
0.5614866 0.10135751 0.2470817
0.56147718 0.10265445 0.24706
0.56243289 0.10397235 0.24748941
0.56242347 0.10526729 0.24746774
0.56337923 0.10657921 0.2478973
0.56336981 0.10787216 0.24787566
0.56336045 0.1091651 0.24785402
0.56335104 0.11045805 0.24783239
0.5643068 0.11175999 0.24826208
0.56429744 0.11305095 0.24824047
0.56428808 0.11434189 0.24821888
0.56427866 0.11563285 0.24819727
0.5642693 0.11692379 0.24817568
0.56425995 0.11821475 0.24815407
0.56425053 0.1195057 0.24813248
0.56707168 0.12977649 0.24931499
0.56706232 0.13106145 0.24929351
0.56705302 0.13234642 0.249272
0.56607825 0.13365631 0.24879864
0.56606889 0.13494328 0.24877711
0.56605953 0.13623023 0.24875557
0.56605017 0.13751718 0.24873404
0.56410986 0.13886997 0.24780849
0.56313497 0.14019583 0.24733484
0.56312561 0.14148878 0.24731322
0.5621506 0.14282061 0.24683942
0.56214124 0.14411555 0.24681775
0.56116623 0.14545338 0.24634393
0.56115681 0.14675032 0.24632223
0.5592162 0.14814101 0.24539605
0.55920678 0.14944194 0.24537428
0.55919731 0.15074287 0.24535251
0.55822217 0.15209666 0.24487835
0.5572471 0.15345444 0.24440418
0.55627197 0.15481621 0.24392994
0.55433112 0.15624082 0.24300319
0.55432159 0.15755172 0.24298126
0.47218344 0.1701259 0.20439617
0.47313842 0.17153358 0.20482409
0.47312769 0.17301209 0.20479935
0.47311693 0.1744906 0.20477462
0.47310621 0.17596911 0.20474988
0.47309545 0.17744762 0.20472515
0.47308472 0.17892613 0.20470041
0.47307399 0.18040463 0.20467567
0.47306323 0.18188314 0.20465092
0.4730525 0.18336165 0.20462619
0.47304174 0.18484016 0.20460145
0.47303101 0.18631867 0.20457672
0.47302026 0.18779717 0.20455198
0.47300953 0.18927568 0.20452724
0.47299877 0.19075419 0.20450251
0.47202209 0.19233346 0.20402461
0.44779456 0.20556487 0.19251658
0.44778344 0.20709525 0.19249098
0.44777232 0.20862564 0.19246538
0.44776121 0.21015602 0.19243976
0.44581777 0.21193181 0.19150709
0.54902554 0.085100994 0.24010707
0.54997939 0.08647278 0.24053697
0.5509333 0.087840579 0.24096695
0.55092371 0.089161456 0.24094485
0.55284125 0.090564199 0.24182712
0.55572236 0.091997892 0.24316174
0.55764002 0.093382679 0.24404427
0.55763048 0.094689593 0.2440224
0.55858463 0.096029453 0.24445283
0.55953872 0.097365327 0.24488334
0.56049293 0.098697208 0.24531396
0.56048352 0.099998131 0.24529219
0.56240135 0.101349 0.24617529
0.56239194 0.10264593 0.24615359
0.56238252 0.10394287 0.2461319
0.56333679 0.10525879 0.24656272
0.56429112 0.10657072 0.24699368
0.56331795 0.10784867 0.24651939
0.56427234 0.10915662 0.2469504
0.56426299 0.11044956 0.24692877
0.56425357 0.1117425 0.24690714
0.56424415 0.11303546 0.24688551
0.5651986 0.11433341 0.24731664
0.56518918 0.11562437 0.24729504
0.56517982 0.11691532 0.24727345
0.56517047 0.11820627 0.24725184
0.56516105 0.11949722 0.24723025
0.56701398 0.12978697 0.2479638
0.56796861 0.13105302 0.24839546
0.56699526 0.13236089 0.24792072
0.56698591 0.13364786 0.24789919
0.56697661 0.13493481 0.24787766
0.56696725 0.13622178 0.24785613
0.56695789 0.13750874 0.24783459
0.56502038 0.13886149 0.24690625
0.56404692 0.14018734 0.24643122
0.56307334 0.14151716 0.24595608
0.56306398 0.1428121 0.24593441
0.56305456 0.14410704 0.24591275
0.56208098 0.14544487 0.24543752
0.56207156 0.14674179 0.24541581
0.56013376 0.14813247 0.24448684
0.56012434 0.14943339 0.24446507
0.56011486 0.15073432 0.24444331
0.55914116 0.15208809 0.24396776
0.55816746 0.15344587 0.2434922
0.5571937 0.15480763 0.24301656
0.55718422 0.15611453 0.24299468
0.55524617 0.15754311 0.24206509
0.55330801 0.15897967 0.2411353
0.47323838 0.16863567 0.20338623
0.47419199 0.17004536 0.2038155
0.47418123 0.17152387 0.20379077
0.47417051 0.17300238 0.20376603
0.47415975 0.17448089 0.2037413
0.47414902 0.17595939 0.20371656
0.47413826 0.1774379 0.20369183
0.47412753 0.17891641 0.20366709
0.47411677 0.18039492 0.20364235
0.47410604 0.18187343 0.20361762
0.47409531 0.18335193 0.20359288
0.47408456 0.18483044 0.20356813
0.47407383 0.18630895 0.20354339
0.47406307 0.18778746 0.20351866
0.47308779 0.18936272 0.20303945
0.47307703 0.19084322 0.20301467
0.47306627 0.19232373 0.20298991
0.47305551 0.19380423 0.20296514
0.44694456 0.20578423 0.19053742
0.44693342 0.2073186 0.19051175
0.44692227 0.20885299 0.19048607
0.44691113 0.21038736 0.19046041
0.44689998 0.21192174 0.19043474
0.54995996 0.085092291 0.23918115
0.55091244 0.086464092 0.23961243
0.55090284 0.087786973 0.2395903
0.55185533 0.089152783 0.24002171
0.55377007 0.090555549 0.24090676
0.556647 0.091989286 0.24224555
0.5585618 0.093374088 0.24313088
0.55855227 0.094681002 0.24310902
0.55950499 0.096020885 0.24354085
0.56045771 0.097356766 0.24397273
0.56044823 0.098659687 0.24395095
0.56140107 0.099989586 0.24438299
0.56139159 0.10129052 0.24436122
0.56330669 0.10263742 0.24524719
0.56329727 0.10393436 0.24522547
0.56328785 0.10523129 0.24520378
0.56424069 0.10654522 0.24563603
0.56519365 0.10785517 0.24606842
0.56422192 0.10913511 0.2455927
0.56517488 0.11044107 0.24602515
0.56516552 0.11173401 0.24600352
0.5651561 0.11302696 0.24598189
0.56610912 0.11432493 0.24641441
0.5660997 0.11561588 0.24639282
0.56609035 0.11690684 0.24637121
0.56608099 0.11819779 0.24634962
0.56607157 0.11948874 0.24632801
0.56791234 0.13106547 0.24704282
0.56790298 0.13235244 0.24702129
0.56789362 0.1336394 0.24699976
0.56788427 0.13492636 0.24697822
0.56787491 0.13621332 0.24695669
0.56786561 0.13750029 0.24693516
0.56496823 0.1388859 0.24554923
0.56399608 0.14021371 0.24507272
0.56398672 0.14150865 0.24505106
0.5639773 0.14280361 0.24502939
0.56396788 0.14409855 0.24500772
0.56299573 0.14543635 0.2445311
0.56298631 0.14673328 0.2445094
0.56105131 0.14812392 0.24357764
0.56104189 0.14942485 0.24355587
0.56103241 0.15072578 0.2435341
0.56006014 0.15207954 0.24305716
0.55908781 0.15343729 0.24258021
0.55811548 0.15479904 0.24210316
0.55810601 0.15610595 0.2420813
0.55617076 0.15753449 0.2411489
0.55519831 0.15890822 0.24067163
0.55422586 0.16028592 0.24019434
0.55325335 0.16166763 0.23971698
0.55324382 0.16298452 0.23969494
0.47521329 0.17299266 0.20273274
0.47423956 0.17454796 0.20225245
0.4742288 0.17602846 0.20222768
0.47421807 0.17750897 0.20220292
0.47420731 0.17898947 0.20217814
0.47419655 0.18046997 0.20215337
0.47418579 0.18195048 0.2021286
0.47417504 0.18343097 0.20210382
0.47416428 0.18491147 0.20207906
0.47415352 0.18639198 0.20205429
0.47414276 0.18787248 0.20202951
0.474132 0.18935299 0.20200475
0.47412124 0.19083349 0.20197998
0.47411048 0.192314 0.2019552
0.47409973 0.1937945 0.20193043
0.44802675 0.20577414 0.18946509
0.4480156 0.20730853 0.18943942
0.44800445 0.2088429 0.18941374
0.44799331 0.21037729 0.18938807
0.44605553 0.212157 0.18844979
0.54898274 0.083656855 0.23736779
0.55089444 0.085083589 0.2382552
0.55088478 0.086408459 0.23823303
0.55183583 0.087778278 0.23866576
0.55278695 0.089144103 0.23909855
0.55469888 0.090546899 0.2399864
0.55565006 0.091902748 0.24041937
0.55756205 0.093291573 0.24130745
0.55947405 0.094672419 0.24219564
0.55946457 0.095979333 0.24217376
0.56041586 0.097317226 0.24260703
0.56136721 0.098651133 0.24304034
0.56231862 0.09998104 0.24347378
0.56230915 0.10128197 0.24345201
0.56229967 0.1025829 0.24343026
0.56421196 0.10392583 0.24431907
0.56420255 0.10522277 0.24429737
0.56515408 0.10653672 0.24473102
0.56514466 0.10783166 0.24470936
0.56513524 0.10912661 0.24468769
0.56512582 0.11042155 0.24466603
0.56607741 0.11172552 0.2450999
0.56606799 0.11301847 0.24507827
0.56605864 0.11431141 0.24505663
0.56701022 0.1156074 0.24549058
0.56700087 0.11689836 0.24546899
0.56699151 0.11818931 0.24544738
0.56698209 0.11948026 0.24542579
0.56489062 0.1427951 0.24412437
0.56488121 0.14409004 0.2441027
0.56487179 0.14538498 0.24408104
0.56390101 0.14672476 0.24360299
0.56389159 0.1480217 0.2435813
0.56195945 0.1494163 0.24264666
0.56194997 0.15071723 0.24262491
0.56097907 0.15207098 0.24214657
0.55904675 0.15348354 0.24121165
0.55903727 0.15479046 0.24118978
0.55710489 0.15621498 0.24025466
0.55709535 0.1575259 0.24023272
0.55612427 0.15889959 0.23975407
0.55611473 0.16021249 0.2397321
0.55514371 0.16159219 0.23925337
0.55513412 0.16290708 0.23923138
0.55512458 0.16422197 0.23920938
0.55511504 0.16553687 0.23918737
0.47527301 0.17601873 0.20119298
0.47526225 0.17749923 0.20116821
0.4752515 0.17897974 0.20114344
0.47524074 0.18046024 0.20111866
0.47522998 0.18194075 0.2010939
0.47521925 0.18342125 0.20106913
0.47520849 0.18490176 0.20104435
0.47519773 0.18638226 0.20101959
0.47518697 0.18786277 0.20099482
0.47517622 0.18934327 0.20097004
0.47516546 0.19082378 0.20094527
0.4751547 0.19230428 0.20092051
0.47322041 0.19399019 0.199981
0.44623458 0.20456773 0.18704581
0.44718525 0.20599341 0.1874776
0.44909781 0.20729844 0.18836705
0.4471629 0.20907016 0.18742612
0.44715172 0.21060853 0.18740039
0.54991996 0.083648123 0.23643906
0.54991031 0.084976986 0.23641683
0.55181921 0.086399756 0.2373071
0.55276889 0.08776959 0.23774122
0.55371857 0.089135431 0.23817541
0.55562764 0.090538248 0.23906605
0.55657744 0.091894113 0.2395004
0.55848664 0.093282968 0.24039128
0.56039584 0.094663836 0.24128225
0.5603863 0.09597075 0.24126038
0.56133622 0.097308658 0.24169503
0.56132674 0.098613575 0.2416732
0.56227672 0.099945493 0.24210794
0.5632267 0.10127342 0.24254282
0.56321722 0.10257436 0.24252105
0.56320781 0.10387528 0.24249928
0.5651173 0.10521425 0.24339096
0.5660674 0.10652822 0.243826
0.56605798 0.10782316 0.24380434
0.56604856 0.1091181 0.24378267
0.56603914 0.11041304 0.243761
0.56602973 0.11170798 0.24373934
0.56602031 0.11300293 0.24371767
0.56697053 0.11430292 0.24415301
0.56696117 0.11559587 0.24413137
0.56791139 0.11688988 0.24456675
0.56790197 0.11818083 0.24454516
0.56789261 0.11947178 0.24452356
0.56579453 0.14408153 0.24319769
0.56482518 0.14541931 0.24271828
0.56481576 0.14671624 0.24269657
0.56480634 0.14801317 0.24267487
0.56479692 0.14931011 0.24265318
0.56286752 0.15070869 0.2417157
0.56189805 0.15206242 0.24123597
0.55996853 0.15347496 0.24029827
0.55995905 0.15478186 0.2402764
0.55802947 0.15620637 0.23933849
0.55801994 0.15751728 0.23931657
0.55705029 0.15889096 0.2388365
0.55704075 0.16020386 0.23881453
0.5560711 0.16158354 0.23833442
0.55606157 0.16289844 0.23831241
0.55605197 0.16421333 0.23829041
0.55604243 0.16552822 0.23826841
0.47631723 0.17600901 0.20015827
0.47630647 0.17748952 0.2001335
0.47629571 0.17897002 0.20010874
0.47628495 0.18045053 0.20008396
0.47627419 0.18193103 0.20005919
0.47626343 0.18341152 0.20003442
0.47625268 0.18489203 0.20000964
0.47624192 0.18637253 0.19998488
0.47623116 0.18785304 0.19996011
0.47622043 0.18933354 0.19993533
0.47620967 0.19081405 0.19991057
0.47427821 0.19249594 0.19896834
0.47426742 0.19398044 0.19894351
0.44732103 0.20455761 0.18596925
0.44827026 0.20598331 0.18640245
0.44825909 0.20752169 0.18637672
0.44728744 0.2091787 0.18589194
0.44535521 0.21096036 0.18494803
0.55085725 0.083639398 0.23551035
0.55084759 0.084968261 0.23548812
0.55275369 0.086391054 0.23638116
0.55370194 0.087760903 0.23681669
0.55465019 0.089126751 0.23725225
0.55655646 0.090529598 0.23814569
0.55750483 0.091885477 0.23858143
0.55941123 0.093274355 0.2394751
0.56131762 0.094655253 0.24036887
0.56130809 0.095962167 0.240347
0.56129861 0.097269081 0.24032514
0.5622471 0.098604999 0.24076121
0.56319565 0.099936932 0.24119736
0.56318617 0.10123986 0.24117556
0.56413478 0.10256581 0.24161185
0.56412536 0.10386673 0.24159008
0.56411588 0.10516766 0.24156831
0.56602263 0.10650267 0.24246284
0.5669713 0.10781465 0.24289931
0.56696188 0.10910959 0.24287765
0.56695247 0.11040454 0.242856
0.56694305 0.11169948 0.24283433
0.56693369 0.11299442 0.24281266
0.56788248 0.11429442 0.24324937
0.56787306 0.11558738 0.24322775
0.5678637 0.11688032 0.24320611
0.56881249 0.11817235 0.24364293
0.56880313 0.1194633 0.24362133
0.56572109 0.14800467 0.24176846
0.56571168 0.1493016 0.24174677
0.56378508 0.15070014 0.24080651
0.55895406 0.15619776 0.23842232
0.55894452 0.15750867 0.23840038
0.55893499 0.15881957 0.23837845
0.55796677 0.16019525 0.23789696
0.55795717 0.16150814 0.237875
0.55698895 0.16288979 0.23739344
0.55697942 0.16420469 0.23737144
0.55696982 0.1655196 0.23734945
0.55600154 0.16690923 0.23686777
0.55599195 0.16822612 0.23684573
0.47735068 0.17747979 0.1990988
0.47733992 0.17896029 0.19907403
0.47732916 0.1804408 0.19904926
0.47731841 0.1819213 0.19902448
0.47730765 0.18340181 0.19899972
0.47729689 0.18488231 0.19897495
0.47728613 0.18636282 0.19895017
0.47727537 0.18784331 0.19892541
0.47726461 0.18932381 0.19890064
0.47533602 0.1910017 0.19795568
0.47532523 0.1924862 0.19793084
0.47531444 0.1939707 0.19790602
0.44267574 0.20211877 0.18218268
0.44458255 0.20344977 0.18307732
0.44265318 0.20522343 0.18213074
0.44839627 0.20608786 0.18486695
0.44838506 0.20762822 0.18484119
0.44645569 0.20940587 0.18389454
0.44644445 0.21095023 0.18386871
0.55178481 0.084959529 0.23455939
0.55368811 0.086382352 0.23545523
0.55367845 0.087707222 0.23543307
0.55558181 0.089118078 0.23632912
0.55557221 0.090438955 0.23630701
0.55747575 0.091837838 0.2372033
0.55937922 0.093228735 0.23809968
0.56032628 0.094576649 0.238537
0.56031674 0.095887549 0.23851506
0.56222039 0.09726049 0.23941174
0.56221092 0.098567411 0.23938988
0.56315798 0.099901348 0.23982738
0.56410515 0.1012313 0.24026497
0.56409568 0.10253423 0.24024317
0.56504291 0.10385819 0.24068087
0.56503344 0.10515912 0.24065912
0.56693733 0.10649415 0.24155644
0.56692791 0.10779109 0.24153474
0.56691849 0.10908803 0.24151303
0.56690907 0.11038496 0.24149133
0.56689966 0.1116819 0.24146964
0.56689024 0.11297884 0.24144794
0.5678376 0.11428085 0.24188598
0.56782818 0.1155758 0.24186431
0.56781876 0.11687074 0.24184264
0.56876624 0.11816478 0.24228086
0.60117346 0.13528548 0.25762877
0.60116458 0.13651058 0.25760826
0.60115564 0.13773569 0.25758779
0.60114676 0.13896079 0.25756729
0.5589118 0.15756081 0.23702332
0.55890226 0.15887372 0.23700136
0.55889273 0.16018662 0.2369794
0.55888319 0.16149952 0.23695743
0.55791634 0.16288117 0.23647448
0.55790681 0.16419606 0.23645249
0.55789727 0.16551095 0.2364305
0.55693036 0.16690058 0.2359474
0.55692077 0.16821747 0.23592538
0.47646934 0.179116 0.1971169
0.47645855 0.18060048 0.19709206
0.47644776 0.18208498 0.19706722
0.47643697 0.18356948 0.19704238
0.47642618 0.18505397 0.19701754
0.4764154 0.18653846 0.19699271
0.47640461 0.18802296 0.19696787
0.47639382 0.18950745 0.19694303
0.47638306 0.19099195 0.19691819
0.47637227 0.19247644 0.19689335
0.47636148 0.19396093 0.19686852
0.44377062 0.20210856 0.18109779
0.4456746 0.20343961 0.18199521
0.44374806 0.20521323 0.18104585
0.4456521 0.20653629 0.1819434
0.44564083 0.20808463 0.18191749
0.5527221 0.084950797 0.23363066
0.55271244 0.08627966 0.23360842
0.55461293 0.087698519 0.23450714
0.55651349 0.089109398 0.23540597
0.55650389 0.090430282 0.23538387
0.55840451 0.091829188 0.23628294
0.55935007 0.093183093 0.23672152
0.56125087 0.094568036 0.23762083
0.56124133 0.095878944 0.2375989
0.56314218 0.097251907 0.23849836
0.56313264 0.098558821 0.2384765
0.56407839 0.09989278 0.2389154
0.56406891 0.1011977 0.23889355
0.56501466 0.10252567 0.23933257
0.56500518 0.10382859 0.23931077
0.56595099 0.10515057 0.23974991
0.56594157 0.1064515 0.23972815
0.56784266 0.10778257 0.24062832
0.56783324 0.1090795 0.24060662
0.56782383 0.11037644 0.24058492
0.56781441 0.11167338 0.24056323
0.56780499 0.11297031 0.24054152
0.56779557 0.11426725 0.24051982
0.5687415 0.11556729 0.24095929
0.56873208 0.11686223 0.24093762
0.61070824 0.1253608 0.26108956
0.60299313 0.1352486 0.25723428
0.60298425 0.13647172 0.2572138
0.60297537 0.13769482 0.25719333
0.60296649 0.13891794 0.25717288
0.60295761 0.14014105 0.25715241
0.60199302 0.14140296 0.25667009
0.55982828 0.15886509 0.23608379
0.55981874 0.16017799 0.23606183
0.55980921 0.16149089 0.23603986
0.55979967 0.1628038 0.2360179
0.5588342 0.16418742 0.23553352
0.55882466 0.16550231 0.23551153
0.55785918 0.16689193 0.23502706
0.55784959 0.16820882 0.23500502
0.47751635 0.17910624 0.1960794
0.47654951 0.18067543 0.1955919
0.47653869 0.18216193 0.19556703
0.4765279 0.18364841 0.19554216
0.47651711 0.1851349 0.19551729
0.47650629 0.18662138 0.19549242
0.4764955 0.18810788 0.19546755
0.47648469 0.18959437 0.19544268
0.4764739 0.19108087 0.19541779
0.47646311 0.19256735 0.19539292
0.47645229 0.19405384 0.19536805
0.44486549 0.20209837 0.18001287
0.44676664 0.20342943 0.18091309
0.44484293 0.20520303 0.17996092
0.44674414 0.20652613 0.18086128
0.55270565 0.08489307 0.2322401
0.55364966 0.086270936 0.23267971
0.55554736 0.087689817 0.2335812
0.55649143 0.089057706 0.23402092
0.55743545 0.090421602 0.23446073
0.55933332 0.091820538 0.23536259
0.56027752 0.093174458 0.23580255
0.56122166 0.094524391 0.23624258
0.56216592 0.095870331 0.23668273
0.56215638 0.097181231 0.23666079
0.56405443 0.098550238 0.2375631
0.56404495 0.099857152 0.23754124
0.56498927 0.10118912 0.23798157
0.56497979 0.10249405 0.23795974
0.56592411 0.10382003 0.23840018
0.56591463 0.10512295 0.23837838
0.56685913 0.10644296 0.23881894
0.56684965 0.10774388 0.23879717
0.568748 0.10907099 0.23970021
0.56873858 0.11036792 0.23967852
0.56872916 0.11166486 0.23965681
0.56871969 0.1129618 0.23963511
0.56871027 0.11425874 0.23961341
0.56870085 0.11555567 0.23959172
0.56869143 0.11685261 0.23957001
0.61155963 0.12535286 0.26024589
0.61155087 0.12656002 0.26022568
0.60385579 0.13524057 0.25637946
0.60384691 0.13646367 0.25635898
0.60383803 0.13768679 0.25633854
0.60382915 0.13890991 0.25631806
0.60382026 0.14013301 0.25629759
0.60476565 0.14131734 0.25674039
0.60475677 0.14253846 0.25671998
0.60474789 0.14375956 0.25669953
0.5607447 0.16016936 0.23514426
0.56073517 0.16148227 0.23512229
0.56072563 0.16279517 0.23510033
0.55976158 0.16417877 0.23461455
0.55975205 0.16549368 0.23459256
0.55878794 0.16688327 0.23410669
0.55877841 0.16820017 0.23408467
0.47760871 0.17917918 0.19457789
0.47568873 0.18083502 0.19362494
0.47758713 0.18215215 0.19452815
0.47757632 0.18363865 0.19450328
0.47756553 0.18512514 0.19447841
0.47755471 0.18661162 0.19445354
0.47754392 0.18809812 0.19442867
0.47753313 0.1895846 0.1944038
0.47752231 0.19107109 0.19437893
0.47751153 0.19255759 0.19435406
0.44594908 0.20364051 0.178902
0.44592652 0.20674518 0.17885005
0.5545966 0.084933341 0.23177321
0.55458695 0.086262204 0.23175098
0.55648178 0.087681115 0.23265527
0.55742443 0.089049019 0.23309639
0.55836713 0.090412922 0.23353757
0.55835754 0.091733806 0.23351547
0.56120491 0.093165822 0.23488359
0.56214768 0.094515763 0.23532501
0.56213814 0.095828667 0.23530304
0.56308097 0.097172625 0.23574461
0.56307149 0.098483525 0.23572268
0.56496674 0.099848568 0.23662786
0.5649572 0.10115548 0.23660599
0.56590015 0.10248547 0.23704776
0.56589067 0.10379039 0.23702592
0.56683362 0.10511439 0.23746778
0.56682414 0.10641732 0.23744598
0.5677672 0.10773534 0.23788798
0.56775773 0.10903627 0.23786621
0.56774831 0.11033719 0.23784444
0.56773883 0.11163812 0.23782268
0.56772941 0.11293905 0.23780091
0.56962502 0.11425021 0.23870699
0.56771052 0.11554091 0.23775738
0.61051446 0.12415947 0.25849399
0.61241102 0.12534493 0.25940222
0.61240226 0.12655209 0.25938204
0.60471845 0.13523254 0.25552464
0.60470957 0.13645564 0.25550416
0.60470068 0.13767876 0.25548372
0.60564464 0.13886708 0.25592783
0.60563576 0.1400882 0.25590742
0.60562688 0.14130931 0.25588697
0.60657096 0.14248966 0.25633126
0.60656208 0.14370878 0.25631088
0.60655326 0.1449279 0.25629047
0.60654438 0.14614703 0.25627008
0.60653549 0.14736614 0.2562497
0.60557365 0.14863601 0.25576439
0.56166118 0.16147365 0.23420472
0.56165165 0.16278654 0.23418276
0.56068903 0.16417015 0.2336956
0.55972636 0.16555774 0.23320837
0.55971676 0.16687463 0.23318633
0.55780089 0.1683449 0.23223367
0.47672912 0.18231572 0.19255833
0.47671831 0.1838062 0.19253339
0.47861397 0.18511537 0.1934395
0.47860315 0.18660186 0.19341463
0.47859237 0.18808836 0.19338976
0.47858155 0.18957484 0.19336489
0.47857076 0.19106133 0.19334002
0.55458301 0.084875584 0.23037986
0.55552417 0.086253472 0.23082227
0.55741626 0.087672412 0.23172933
0.55835748 0.089040332 0.23217183
0.55929875 0.09040425 0.23261443
0.56119096 0.091803238 0.23352188
0.56118137 0.093120128 0.23349984
0.56212276 0.09447208 0.23394263
0.56306416 0.09582004 0.23438548
0.56305462 0.097132936 0.23436351
0.56399608 0.09847492 0.23480651
0.56588846 0.099839985 0.23571448
0.56587899 0.1011469 0.23569261
0.56586951 0.10245381 0.23567075
0.56681103 0.10378182 0.23611394
0.56680155 0.10508674 0.23609209
0.56774312 0.10640876 0.23653539
0.56773365 0.10771168 0.23651358
0.56867528 0.10902772 0.23695701
0.56866586 0.11032864 0.23693524
0.56865638 0.11162958 0.23691347
0.56864697 0.11293051 0.23689172
0.56863749 0.11423143 0.23686995
0.56862801 0.11553236 0.23684818
0.56386274 0.11682758 0.23449944
0.61136866 0.12415151 0.25764754
0.61326247 0.125337 0.25855857
0.61325365 0.12654416 0.25853837
0.6074928 0.1339478 0.25562203
0.60653251 0.13519572 0.25513572
0.60652363 0.13641682 0.25511527
0.60746622 0.13760516 0.25556085
0.60745734 0.13882428 0.25554046
0.60839993 0.14000665 0.25598606
0.60839111 0.14122377 0.25596571
0.60933375 0.14240013 0.25641143
0.6083734 0.14365801 0.25592497
0.60931611 0.14483039 0.25637075
0.60930723 0.14604552 0.25635043
0.60929841 0.14726065 0.2563301
0.60928959 0.14847578 0.25630978
0.60642606 0.1498491 0.25489053
0.47776952 0.18379641 0.19149172
0.47775871 0.18528689 0.19146679
0.4796516 0.1865921 0.19237573
0.47964081 0.18807858 0.19235086
0.47962999 0.18956508 0.19232599
0.54798502 0.076393589 0.22585708
0.54987395 0.077858441 0.22676617
0.5508135 0.079258293 0.22720954
0.55080378 0.080599129 0.22718711
0.55174345 0.081992999 0.22763063
0.55268312 0.083382875 0.22807418
0.55457222 0.084817797 0.22898376
0.55646145 0.086244747 0.22989354
0.55835068 0.08766371 0.2308034
0.55929053 0.089031637 0.23124731
0.56023037 0.09039557 0.23169129
0.56022078 0.091716453 0.23166919
0.56305969 0.093148544 0.23304565
0.56399965 0.094498515 0.23348987
0.56399012 0.095811419 0.23346791
0.56493014 0.0971554 0.23391227
0.56492066 0.098466307 0.23389034
0.56681025 0.099831395 0.2348011
0.56680077 0.10113831 0.23477922
0.5667913 0.10244522 0.23475736
0.56773138 0.10377324 0.23520194
0.5677219 0.10507816 0.23518011
0.56771243 0.10638309 0.23515828
0.56865263 0.10770312 0.23560299
0.56864315 0.10900605 0.23558119
0.56863368 0.11030897 0.23555939
0.5686242 0.1116119 0.23553759
0.56861472 0.11291482 0.23551579
0.56860524 0.11421774 0.23549399
0.56859583 0.11552066 0.23547219
0.61222291 0.12414356 0.2568011
0.61411387 0.12532908 0.25771493
0.61220533 0.12656584 0.25676057
0.61219651 0.12777698 0.2567403
0.61120254 0.13385946 0.25617173
0.61119372 0.13507259 0.25615144
0.6111849 0.13628572 0.25613114
0.61117607 0.13749887 0.25611085
0.61116731 0.138712 0.25609055
0.61115849 0.13992514 0.25607026
0.61399984 0.14102203 0.25745234
0.61399108 0.14222917 0.25743216
0.61398232 0.14343631 0.25741196
0.61397356 0.14464347 0.25739175
0.61396474 0.14585061 0.25737157
0.61395597 0.14705777 0.25735137
0.6120469 0.14836636 0.25639582
0.61203814 0.1495775 0.25637555
0.47880995 0.1852771 0.1904251
0.47879913 0.18676758 0.19040017
0.48068923 0.18806882 0.19131199
0.47877747 0.18974854 0.19035029
0.54892516 0.077731557 0.22489327
0.55175924 0.079249486 0.22627245
0.55269748 0.080645368 0.22671734
0.55268776 0.0819842 0.22669494
0.55267805 0.083323039 0.22667253
0.55361629 0.084710933 0.22711751
0.55645066 0.086188957 0.22849736
0.55738902 0.087564878 0.22894257
0.55927551 0.088979878 0.22985528
0.56021392 0.090345822 0.23030062
0.5611524 0.091707781 0.23074603
0.563039 0.093102828 0.23165913
0.56302947 0.094419718 0.23163709
0.563968 0.095769703 0.23208271
0.5649066 0.097115688 0.23252837
0.56489706 0.098428592 0.23250641
0.56583571 0.099768601 0.23295222
0.56582618 0.1010795 0.23293029
0.56771302 0.10243664 0.23384397
0.56770355 0.10374355 0.23382211
0.56864226 0.10506959 0.23426811
0.56863278 0.10637451 0.23424628
0.56957155 0.10769457 0.23469239
0.56956208 0.10899749 0.23467059
0.56955266 0.11030041 0.23464879
0.56764656 0.11158504 0.2336909
0.56763709 0.11289195 0.23366904
0.56762761 0.11419886 0.23364718
0.56761807 0.11550578 0.23362531
0.61496526 0.12532115 0.25687125
0.6149565 0.12652829 0.25685105
0.61305076 0.12776902 0.25589386
0.61304194 0.12898016 0.25587359
0.61301553 0.13261358 0.25581279
0.61300671 0.13382472 0.25579253
0.61299795 0.13503586 0.25577226
0.61298913 0.13624701 0.255752
0.61298031 0.13745815 0.25573176
0.61486882 0.1385998 0.25664908
0.61486 0.13980694 0.2566289
0.6157999 0.14097536 0.25707754
0.61579114 0.1421805 0.25705737
0.61578238 0.14338566 0.25703719
0.61482495 0.14463554 0.25654811
0.61481619 0.14584269 0.2565279
0.61480743 0.14704984 0.25650769
0.61479861 0.14825699 0.25648752
0.61478984 0.14946413 0.25646731
0.61193478 0.15083538 0.25503972
0.61192596 0.15204851 0.25501943
0.61191714 0.15326165 0.25499913
0.61095953 0.15453547 0.25450963
0.61095071 0.1557506 0.2544893
0.47320712 0.18740606 0.18607023
0.47699237 0.18853208 0.18792416
0.54987508 0.077722713 0.223952
0.55270493 0.07924068 0.22533536
0.55269516 0.080581516 0.22531293
0.55363202 0.081975408 0.22575924
0.55362231 0.083314247 0.22573684
0.55455917 0.084702156 0.22618321
0.55738932 0.08618021 0.22756724
0.5583263 0.087556146 0.22801386
0.56020993 0.088971175 0.22892936
0.56114697 0.090337135 0.22937609
0.56208402 0.091699101 0.22982289
0.56396782 0.093094178 0.23073877
0.56395829 0.094411068 0.23071674
0.56489539 0.095761061 0.23116374
0.56488585 0.097075954 0.23114173
0.56582302 0.098419964 0.23158884
0.5667603 0.099759988 0.23203605
0.56675076 0.10107089 0.23201412
0.56674123 0.1023818 0.23199219
0.56862533 0.10373497 0.23290873
0.56861585 0.10504188 0.23288685
0.56860632 0.1063488 0.23286499
0.56954366 0.10767086 0.23331246
0.56953418 0.10897578 0.23329063
0.56952471 0.11028069 0.2332688
0.56951523 0.11158561 0.23324695
0.56950575 0.11289053 0.23322512
0.5694868 0.11550037 0.23318146
0.61581665 0.12531322 0.25602758
0.61580789 0.12652037 0.2560074
0.61579913 0.12772752 0.2559872
0.61579037 0.12893467 0.25596699
0.61578161 0.13014181 0.25594682
0.61577284 0.13134897 0.25592661
0.61576408 0.13255611 0.2559064
0.61575526 0.13376327 0.25588623
0.6157465 0.13497041 0.25586602
0.61573774 0.13617755 0.25584581
0.61572897 0.13738471 0.25582561
0.61666739 0.13855712 0.25627559
0.61665863 0.13976228 0.25625542
0.61664987 0.14096743 0.25623527
0.6175884 0.14213187 0.25668538
0.61757964 0.14333503 0.25666523
0.61662364 0.1445829 0.25617477
0.61661488 0.14578804 0.25615463
0.61660612 0.1469932 0.25613445
0.61659735 0.14819837 0.25611427
0.61564124 0.1494562 0.25562364
0.61563247 0.15066336 0.25560346
0.61372894 0.15198387 0.25464213
0.61372018 0.15319501 0.25462186
0.61276394 0.15446682 0.25413099
0.61180776 0.15574262 0.25364006
0.55270547 0.079174809 0.22392824
0.55364084 0.080572709 0.22437584
0.55457634 0.081966616 0.22482355
0.55456662 0.083305456 0.22480115
0.55550206 0.084693372 0.2252489
0.55832797 0.086171471 0.22663713
0.55831832 0.087502331 0.22661485
0.55925393 0.088876285 0.2270629
0.56113476 0.090287343 0.22798125
0.56207037 0.09165132 0.22842941
0.56489664 0.093085527 0.2298184
0.56488705 0.094402418 0.22979638
0.56487751 0.095719308 0.22977434
0.56581324 0.097067319 0.23022278
0.56674904 0.098411344 0.23067127
0.5667395 0.099724241 0.23064931
0.56767535 0.10106228 0.23109794
0.56766582 0.10237318 0.231076
0.56765634 0.10368409 0.23105407
0.56953758 0.1050333 0.23197347
0.5695281 0.10634021 0.23195159
0.56951863 0.10764713 0.23192973
0.56950909 0.10895403 0.23190787
0.56949961 0.11026096 0.231886
0.56949013 0.11156786 0.23186414
0.56948066 0.11287478 0.23184226
0.56946164 0.11548861 0.23179854
0.61666811 0.12530529 0.25518394
0.61760497 0.12649767 0.25563496
0.61665052 0.12771958 0.25514355
0.61664176 0.12892674 0.25512335
0.61757869 0.13011312 0.25557446
0.61756992 0.13131829 0.25555432
0.61756116 0.13252343 0.25553414
0.61755246 0.13372859 0.255514
0.6175437 0.13493375 0.25549382
0.61753494 0.1361389 0.25547364
0.61752617 0.13734406 0.2554535
0.61846322 0.13851449 0.25590488
0.61845446 0.13971765 0.25588477
0.61939156 0.14088209 0.25633627
0.6193828 0.14208326 0.25631616
0.6193741 0.14328443 0.25629607
0.61936539 0.14448559 0.25627598
0.61935663 0.14568675 0.25625587
0.618402 0.1469366 0.25576398
0.61744738 0.14819044 0.25527203
0.61743861 0.1493956 0.25525185
0.61648393 0.15065542 0.25475979
0.61647511 0.15186258 0.25473958
0.61457437 0.15318705 0.25377542
0.61456555 0.15439819 0.25375515
0.6136108 0.15567198 0.25326288
0.61265594 0.15694977 0.25277051
0.55458659 0.080563895 0.22343874
0.55552065 0.081957817 0.22388785
0.55551088 0.083296657 0.22386543
0.55644494 0.084684588 0.2243146
0.55832285 0.086115628 0.22523542
0.55925697 0.087493591 0.22568473
0.56019115 0.088867553 0.22613417
0.56206918 0.09027864 0.22705531
0.56300342 0.091642633 0.22750488
0.56582546 0.093076877 0.22889806
0.56581587 0.094393767 0.22887602
0.56580633 0.095710658 0.22885399
0.56674063 0.097058684 0.22930382
0.5667311 0.098373577 0.22928181
0.56766546 0.09971562 0.22973174
0.56765592 0.10102852 0.22970977
0.5685904 0.10236458 0.23015985
0.56858087 0.10367548 0.23013791
0.56857139 0.10498638 0.23011598
0.56856185 0.10629728 0.23009405
0.57044035 0.10763854 0.23101635
0.57043087 0.10894545 0.23099449
0.5704214 0.11025237 0.23097263
0.57041192 0.11155928 0.23095076
0.61846375 0.1252846 0.25481287
0.61845499 0.12648976 0.25479269
0.61844623 0.1276949 0.25477254
0.61843747 0.12890007 0.25475237
0.61937296 0.13008447 0.25520495
0.61936426 0.13128763 0.2551848
0.6193555 0.1324908 0.25516468
0.6193468 0.13369395 0.25514454
0.61933804 0.13489711 0.25512442
0.62027365 0.13606955 0.25557718
0.62026495 0.13727072 0.25555706
0.62120062 0.13843717 0.25600997
0.62119192 0.13963634 0.25598991
0.62118322 0.14083551 0.25596985
0.62117451 0.14203468 0.2559498
0.62116581 0.14323385 0.25592971
0.62115705 0.14443301 0.25590965
0.62114835 0.14563218 0.25588959
0.62019509 0.14688002 0.25539631
0.62018639 0.14808118 0.25537619
0.61923313 0.14933501 0.25488284
0.61827987 0.15059283 0.25438944
0.61827111 0.15179799 0.25436926
0.6173178 0.15306179 0.25387573
0.61730897 0.15426895 0.25385553
0.61541098 0.15560137 0.25288844
0.61445761 0.15687715 0.25239474
0.61444879 0.15809029 0.25237444
0.61538458 0.15923479 0.25282764
0.55647463 0.080610186 0.22297455
0.55646491 0.081949025 0.22295214
0.55645519 0.083287865 0.22292975
0.55738783 0.084675811 0.2233803
0.55926287 0.086106874 0.2243039
0.56019562 0.087484844 0.22475462
0.56018597 0.088815704 0.22473235
0.56111872 0.090187684 0.22518322
0.562994 0.091594808 0.22610722
0.56486928 0.092993952 0.22703135
0.56674469 0.094385117 0.22795567
0.56673515 0.095702007 0.22793363
0.56672555 0.097018898 0.22791159
0.56765848 0.098364942 0.22836284
0.56764895 0.099679835 0.22834085
0.56858194 0.1010199 0.22879221
0.5685724 0.10233279 0.22877024
0.56950551 0.10366686 0.22922173
0.56949598 0.10497777 0.2291998
0.56948644 0.10628868 0.22917786
0.5694769 0.10759958 0.22915593
0.56946737 0.10891049 0.22913399
0.56945789 0.11022139 0.22911207
0.56850564 0.11152309 0.22861648
0.61837089 0.12528943 0.25349662
0.61930496 0.12648183 0.25395045
0.61835337 0.12770373 0.25345621
0.6211732 0.12885468 0.25485829
0.6211645 0.13005584 0.25483817
0.62115574 0.13125701 0.25481808
0.62114704 0.13245817 0.254798
0.62113827 0.13365933 0.25477788
0.62207258 0.13483179 0.2552321
0.62206382 0.13603096 0.25521201
0.62205511 0.13723013 0.25519195
0.62298942 0.13839459 0.25564626
0.62298071 0.13959177 0.25562623
0.62297201 0.14078894 0.25560617
0.62296331 0.14198612 0.25558615
0.62295461 0.14318329 0.25556612
0.6229459 0.14438047 0.25554609
0.6229372 0.14557764 0.25552607
0.62198544 0.14682347 0.25503144
0.62197673 0.14802264 0.25501138
0.62196797 0.14922181 0.25499132
0.62101614 0.15047562 0.25449651
0.62006426 0.15173343 0.25400171
0.61911231 0.15299523 0.25350684
0.61910361 0.15420039 0.25348666
0.61815166 0.15546817 0.25299168
0.61625642 0.15680456 0.25202173
0.61624765 0.1580157 0.25200146
0.61623883 0.15922683 0.2519812
0.61623001 0.16043797 0.25196093
0.55741894 0.080601394 0.22203885
0.55740923 0.081940234 0.22201645
0.55834043 0.083330184 0.22246836
0.55833071 0.084667027 0.22244599
0.56020296 0.08609812 0.22337238
0.56113428 0.087476104 0.2238245
0.56112462 0.088806957 0.22380224
0.56205601 0.090178959 0.22425449
0.56204635 0.091507822 0.22423226
0.56580091 0.09298528 0.22610821
0.56579131 0.094306156 0.22608611
0.56766391 0.095693357 0.22701328
0.56765437 0.097010247 0.22699125
0.56764477 0.098327138 0.22696921
0.56857634 0.0996712 0.22742188
0.5685668 0.10098609 0.22739989
0.56949842 0.10232417 0.22785267
0.56948888 0.10363707 0.22783069
0.56947935 0.10494997 0.22780873
0.56946981 0.10626287 0.22778676
0.56946027 0.10757577 0.2277648
0.57039195 0.10890187 0.22821783
0.57038248 0.11021278 0.22819589
0.62016374 0.12526877 0.25312832
0.62015498 0.12647392 0.25310817
0.62014621 0.12767908 0.253088
0.62013745 0.12888423 0.25306785
0.62107021 0.13006867 0.25352317
0.62106144 0.13127182 0.25350305
0.62293577 0.13242558 0.25443414
0.62292707 0.13362475 0.25441405
0.62291831 0.13482392 0.25439399
0.62385118 0.13599239 0.25484961
0.62384248 0.13718957 0.25482959
0.62477535 0.13835205 0.25528532
0.62476665 0.13954723 0.25526533
0.62475795 0.14074241 0.25524533
0.6247493 0.14193758 0.25522533
0.6247406 0.14313276 0.25520533
0.6247319 0.14432794 0.25518534
0.62472326 0.14552312 0.25516534
0.62377286 0.14676695 0.25466934
0.62376416 0.14796412 0.25464931
0.62375546 0.14916129 0.25462928
0.62374681 0.15035847 0.25460926
0.62279636 0.15161227 0.25411311
0.62090409 0.15292868 0.25314072
0.61995357 0.15419246 0.25264439
0.61900306 0.15546024 0.25214803
0.6189943 0.15666738 0.25212783
0.61710185 0.15800774 0.25115502
0.61709303 0.15921888 0.25113475
0.61614239 0.16050062 0.25063813
0.5583632 0.080592595 0.22110316
0.55835348 0.081931435 0.22108075
0.55834377 0.083270274 0.22105835
0.5592736 0.084658243 0.22151169
0.56114304 0.086089365 0.22244087
0.56207293 0.087467358 0.22289439
0.56206328 0.088798217 0.22287211
0.56299329 0.090170227 0.22332576
0.56298363 0.09149909 0.22330353
0.56485325 0.092902273 0.22423318
0.56672293 0.094297484 0.22516295
0.56671333 0.09561836 0.22514085
0.56858319 0.097001597 0.22607088
0.56857359 0.098318487 0.22604886
0.56856406 0.099635378 0.22602682
0.56949419 0.10097746 0.22648093
0.56948465 0.10229235 0.22645892
0.56947511 0.10360724 0.22643693
0.56946552 0.10492214 0.22641493
0.56945598 0.10623703 0.22639292
0.57038623 0.10756715 0.22684723
0.57037669 0.10888004 0.22682527
0.62009126 0.12285927 0.25184968
0.62196249 0.12404497 0.25278297
0.62195373 0.12524813 0.25276282
0.62288505 0.12643658 0.25321952
0.62287629 0.12763773 0.25319943
0.62380767 0.1288202 0.25365624
0.62379897 0.13001937 0.25363618
0.62379026 0.13121854 0.25361612
0.62378156 0.13241769 0.25359604
0.6237728 0.13361686 0.25357598
0.6237641 0.13481604 0.25355592
0.62469554 0.13598453 0.25401294
0.62656713 0.13711636 0.25494713
0.62655848 0.13830954 0.25492716
0.62654984 0.13950272 0.25490719
0.6274814 0.14065725 0.25536448
0.6274727 0.14184843 0.25534454
0.62746406 0.14303961 0.25532463
0.62745541 0.1442308 0.25530469
0.62744677 0.14542198 0.25528476
0.62743813 0.14661318 0.25526482
0.62742943 0.14780436 0.25524491
0.62742078 0.14899555 0.25522497
0.62647182 0.15024136 0.25472751
0.62552279 0.15149115 0.25423005
0.62551409 0.15268633 0.25421005
0.6226843 0.15406333 0.25275728
0.62173522 0.1553271 0.25225958
0.62078607 0.15659486 0.25176182
0.62077731 0.1578 0.25174165
0.61982816 0.15907376 0.25124377
0.55927831 0.084600314 0.22010025
0.56020677 0.085986309 0.22055504
0.56207341 0.08741346 0.22148706
0.56300193 0.088789478 0.22194199
0.56299227 0.09012033 0.22191973
0.56392086 0.091490358 0.22237481
0.5639112 0.092819221 0.22235258
0.56671631 0.094253622 0.22376245
0.56764495 0.095609687 0.22421771
0.56763536 0.096930563 0.22419561
0.56950241 0.098309837 0.22512849
0.56949288 0.099626727 0.22510646
0.56948328 0.10094362 0.22508442
0.57041204 0.10228372 0.22553997
0.5704025 0.10359861 0.22551796
0.57039297 0.1049135 0.22549596
0.57038337 0.1062284 0.22547396
0.57037383 0.10754329 0.22545196
0.62095147 0.12164419 0.25102621
0.62094265 0.12285134 0.25100604
0.62374967 0.12402636 0.25242022
0.62374097 0.12522751 0.25240013
0.62467086 0.12641399 0.25285828
0.62466216 0.12761316 0.25283822
0.62465346 0.12881231 0.25281817
0.62464476 0.13001148 0.25279808
0.62557471 0.13118798 0.25325638
0.62556601 0.13238513 0.25323635
0.6255573 0.13358231 0.2532163
0.6255486 0.13477948 0.25319627
0.62647867 0.13594599 0.25365472
0.62740868 0.13710852 0.25411323
0.62740004 0.1383017 0.25409326
0.6273914 0.13949488 0.25407329
0.6273827 0.14068806 0.25405332
0.62737405 0.14188124 0.25403336
0.62736535 0.14307442 0.25401339
0.62923437 0.14417835 0.25495088
0.62922573 0.14536753 0.254931
0.62921709 0.14655674 0.25491109
0.62920851 0.14774592 0.25489122
0.62919986 0.14893511 0.25487131
0.62825227 0.15017891 0.25437254
0.62824363 0.15137009 0.2543526
0.62823498 0.15256129 0.25433269
0.62728733 0.15381306 0.25383374
0.62446177 0.15519401 0.25237677
0.62351406 0.15645777 0.25187761
0.62256634 0.15772551 0.25137845
0.62067956 0.15906583 0.2504001
0.56021291 0.085930362 0.21914217
0.56113994 0.087314367 0.21959835
0.56300378 0.088737562 0.22053325
0.56393093 0.090111591 0.22098961
0.56485814 0.091481633 0.22144608
0.56484848 0.092810497 0.22142385
0.5667125 0.094209738 0.22235915
0.56763971 0.095567808 0.22281578
0.56856698 0.096921891 0.22327247
0.56855738 0.098242767 0.22325036
0.57042164 0.099618077 0.22418611
0.5704121 0.10093497 0.22416407
0.5704025 0.10225186 0.22414204
0.57039297 0.10356875 0.22412001
0.57038337 0.10488564 0.22409797
0.57037383 0.10620253 0.22407594
0.61903542 0.11559071 0.24884561
0.61901778 0.11801698 0.24880502
0.62366843 0.122826 0.25112134
0.62459683 0.12401847 0.25158074
0.62552536 0.12520693 0.25204027
0.62551665 0.1264061 0.25202021
0.62550795 0.12760527 0.25200015
0.62643647 0.12878576 0.25245973
0.62642777 0.12998293 0.25243971
0.62735635 0.13115744 0.25289941
0.62828493 0.13232794 0.25335917
0.62827629 0.13352112 0.2533392
0.62826759 0.13471431 0.25331926
0.62825894 0.13590749 0.2532993
0.62918764 0.13706803 0.25375926
0.629179 0.13825922 0.25373933
0.62917036 0.1394504 0.25371942
0.62916166 0.14064158 0.25369948
0.62915301 0.14183278 0.25367954
0.62914437 0.14302397 0.25365961
0.62913573 0.14421515 0.2536397
0.62912709 0.14540634 0.25361976
0.62911838 0.14659752 0.25359982
0.63098472 0.14768749 0.25454029
0.63097608 0.1488747 0.25452042
0.63002998 0.15011649 0.2540203
0.63002133 0.15130569 0.2540004
0.63001269 0.15249488 0.25398049
0.62906647 0.15374465 0.25348026
0.62905782 0.15493584 0.25346032
0.62529886 0.1563853 0.25151861
0.62435251 0.15765104 0.25101805
0.56486958 0.090102851 0.22005948
0.56485993 0.091433704 0.22003722
0.56578571 0.092801765 0.22049512
0.56764692 0.094201036 0.22143321
0.56763732 0.095525913 0.22141103
0.56856316 0.096881993 0.2218691
0.569489 0.098234095 0.22232723
0.56947941 0.099554971 0.22230512
0.57134092 0.10092632 0.22324371
0.57133132 0.10224321 0.22322167
0.57132179 0.1035601 0.22319965
0.57131219 0.10487699 0.22317761
0.62082672 0.11558602 0.24847846
0.62080914 0.1180083 0.24843793
0.62080032 0.11921944 0.24841766
0.62265426 0.12162834 0.2493389
0.62451702 0.1228181 0.25028047
0.62544405 0.12401058 0.25074127
0.62637115 0.12519906 0.2512022
0.62636244 0.12639822 0.25118211
0.62728953 0.12758072 0.25164309
0.62728083 0.12877789 0.25162303
0.62820798 0.12995441 0.25208411
0.62913519 0.13112693 0.25254524
0.62912649 0.13232011 0.25252527
0.63005376 0.13348664 0.25298655
0.63004512 0.13467783 0.25296661
0.63003647 0.13586903 0.25294667
0.63002777 0.13706021 0.25292677
0.6309551 0.13821676 0.25338817
0.63094646 0.13940595 0.25336826
0.63093781 0.14059515 0.25334835
0.63092917 0.14178434 0.25332847
0.63092053 0.14297353 0.25330856
0.63091189 0.14416273 0.25328866
0.63090324 0.14535192 0.25326878
0.6308946 0.1465411 0.25324887
0.63088596 0.14773029 0.25322899
0.63087732 0.14891949 0.25320908
0.62993258 0.15016326 0.25270751
0.63179612 0.15124129 0.25365099
0.63178754 0.15242849 0.25363111
0.63084275 0.15367626 0.25312948
0.62989795 0.15492801 0.25262779
0.62988931 0.1561192 0.25260788
0.62519968 0.15764315 0.25017858
0.56579858 0.091424964 0.21910711
0.56578892 0.092755817 0.21908484
0.56671333 0.094121896 0.21954417
0.56857175 0.095517203 0.22048511
0.56856215 0.09684208 0.22046293
0.56948656 0.098196186 0.22092243
0.57041103 0.099546298 0.22138198
0.57226968 0.10091767 0.22232336
0.57226014 0.10223456 0.22230133
0.57225055 0.10355145 0.2222793
0.62075549 0.11436164 0.24717022
0.62168097 0.11557807 0.24763201
0.62167215 0.11678921 0.24761175
0.62166333 0.11800034 0.24759148
0.62352324 0.11920611 0.24853563
0.62351447 0.12041325 0.24851543
0.62444001 0.12161372 0.24897748
0.62536561 0.1228102 0.24943961
0.62722564 0.12399201 0.25038415
0.62721694 0.12519118 0.25036409
0.6281426 0.12637569 0.25082642
0.62813389 0.12757286 0.25080639
0.62812519 0.12877004 0.25078636
0.62998539 0.12992591 0.25173131
0.63091123 0.13109644 0.2521939
0.63090259 0.13228764 0.25217396
0.63089389 0.13347882 0.25215405
0.63088524 0.13467 0.25213411
0.63181108 0.13583057 0.25259686
0.63180244 0.13701975 0.25257695
0.63179386 0.13820896 0.25255704
0.63271976 0.13936153 0.2530199
0.63271111 0.14054874 0.25300002
0.63176793 0.14177653 0.25249735
0.63175929 0.14296572 0.25247747
0.63268524 0.14411032 0.25294045
0.6326766 0.14529751 0.25292057
0.63266802 0.1464847 0.25290072
0.63265938 0.14767191 0.25288084
0.63265073 0.1488591 0.25286099
0.63170743 0.15010087 0.25235808
0.63169879 0.15129006 0.25233817
0.63169014 0.15247925 0.25231829
0.63074678 0.15372899 0.25181523
0.63073814 0.15492019 0.25179529
0.6307295 0.15611137 0.25177538
0.62978601 0.15736911 0.25127214
0.56579494 0.092709847 0.21767181
0.56765056 0.094113171 0.21861544
0.5676409 0.095442027 0.21859321
0.56949657 0.096833378 0.219537
0.56948692 0.098158248 0.21951485
0.57041001 0.099510372 0.21997575
0.57133305 0.1008585 0.22043674
0.57132345 0.10217938 0.22041464
0.57131386 0.10350026 0.22039254
0.62161112 0.11435367 0.24632238
0.62253517 0.11557011 0.24678557
0.62439215 0.11678388 0.24773237
0.62438339 0.11799102 0.24771217
0.62437463 0.11919817 0.24769197
0.62436587 0.12040532 0.24767177
0.62529004 0.12160581 0.24813522
0.62621421 0.12280229 0.24859874
0.62807143 0.12398414 0.24954608
0.62806273 0.1251833 0.24952601
0.62898695 0.12636782 0.24998973
0.62897831 0.127565 0.24996971
0.6299026 0.12874353 0.2504335
0.63176 0.12989743 0.25138134
0.63175136 0.13108861 0.2513614
0.63174272 0.13227981 0.25134146
0.63266712 0.13344437 0.25180551
0.63265848 0.13463357 0.25178561
0.63264984 0.13582276 0.25176573
0.63357431 0.13697934 0.2522299
0.63356572 0.13816653 0.25221005
0.63355708 0.13935374 0.25219017
0.63448161 0.14050233 0.25265449
0.63447303 0.14168754 0.25263467
0.63446438 0.14287274 0.25261483
0.6344558 0.14405794 0.25259501
0.63538039 0.14519657 0.25305951
0.6353718 0.14637977 0.25303969
0.63536322 0.14756298 0.2530199
0.63535458 0.14874618 0.25300011
0.63441271 0.14998394 0.25249586
0.63440412 0.15116915 0.25247604
0.63346219 0.15241289 0.25197169
0.63252026 0.15366064 0.25146729
0.63157827 0.15491237 0.25096279
0.63156962 0.15610355 0.25094286
0.62689406 0.15762737 0.24849962
0.54264426 0.075116076 0.20442611
0.54356521 0.076559998 0.20488688
0.5435552 0.077942729 0.20486374
0.54354513 0.079325467 0.20484062
0.56394142 0.092589371 0.21528737
0.56765658 0.09406919 0.21720234
0.56857818 0.095433302 0.21766448
0.56856853 0.096762165 0.21764225
0.5704214 0.098149545 0.2185889
0.57041174 0.099474415 0.21856673
0.57133341 0.10082456 0.21902908
0.57225513 0.10217071 0.21949148
0.57224554 0.10349158 0.21946938
0.62339818 0.11435102 0.24595937
0.62338942 0.11556216 0.24593911
0.6252436 0.11677594 0.2468887
0.62523478 0.1179831 0.24686851
0.62522602 0.11919025 0.24684832
0.62614876 0.12039273 0.24731311
0.62614 0.12159789 0.24729295
0.6270628 0.12279439 0.24775787
0.62891722 0.12397626 0.24870799
0.62984008 0.12516278 0.24917307
0.63076293 0.12634532 0.24963821
0.63168585 0.12752387 0.25010344
0.63260883 0.12869842 0.25056875
0.63353181 0.12986898 0.25103411
0.63352317 0.13105817 0.2510142
0.6344462 0.13222276 0.25147966
0.63443756 0.13340995 0.25145978
0.6353606 0.13456854 0.25192532
0.6362837 0.13572314 0.25239095
0.63627511 0.13690636 0.25237116
0.63626647 0.13808955 0.25235134
0.63625789 0.13927276 0.25233155
0.6371811 0.1404174 0.25279737
0.63717252 0.1415986 0.25277761
0.63716394 0.14277981 0.25275785
0.63715535 0.14396103 0.25273809
0.63714677 0.14514223 0.25271833
0.63713819 0.14632344 0.25269857
0.6371296 0.14750466 0.25267878
0.63712102 0.14868587 0.25265902
0.63711244 0.14986707 0.25263926
0.63617194 0.15110482 0.25213361
0.63616335 0.15228803 0.25211379
0.63615471 0.15347123 0.252094
0.63521421 0.15471697 0.25158823
0.63334173 0.15603121 0.25059637
0.63240111 0.15728691 0.25009042
0.63146043 0.15854661 0.24958439
0.54455054 0.075168177 0.20394364
0.54454046 0.076550916 0.20392051
0.54453045 0.077933647 0.20389737
0.54637975 0.079426803 0.20484504
0.54729939 0.080858767 0.20530741
0.55007851 0.082389176 0.20674083
0.55006856 0.083759941 0.20671789
0.5500586 0.085130706 0.20669495
0.55097836 0.086546704 0.20715758
0.55096841 0.087915473 0.20713468
0.56765574 0.095358044 0.21576419
0.56857586 0.096722163 0.21622768
0.5694961 0.098082297 0.2166913
0.56948644 0.09941116 0.21666907
0.56947678 0.10074002 0.21664684
0.56946713 0.10206888 0.2166246
