# .PCD v0.7 - Point Cloud Data file format
VERSION 0.7
FIELDS x y z
SIZE 4 4 4
TYPE F F F
COUNT 1 1 1
WIDTH 1110
HEIGHT 1
VIEWPOINT 0 0 0 1 0 0 0
POINTS 1110
DATA ascii
0.38859102 0.011254192 0.06151963
0.38857791 0.013059928 0.061489418
0.39033324 0.015092653 0.062517315
0.39032012 0.016894395 0.062487174
0.39030704 0.018696137 0.062457029
0.39029396 0.020497888 0.06242688
0.39028087 0.022299631 0.062396735
0.39026776 0.024101373 0.06236659
0.39202332 0.026106171 0.063395001
0.38990399 0.0058251256 0.060348265
0.38989088 0.0076308609 0.060318053
0.38987774 0.0094365962 0.060287841
0.39163017 0.011477325 0.061318394
0.39161709 0.013279067 0.061288249
0.39160401 0.015080817 0.061258104
0.39159092 0.016882559 0.061227959
0.39157781 0.018684302 0.061197814
0.39156473 0.020486053 0.061167669
0.39155164 0.022287795 0.061137524
0.39153856 0.024089538 0.061107375
0.39329129 0.026094362 0.062138576
0.39327821 0.027892111 0.062108494
0.39149928 0.029494779 0.06101694
0.39323905 0.033285376 0.06201826
0.39322597 0.03508313 0.061988182
0.39321291 0.036880888 0.061958101
0.39120382 0.0022017935 0.059146684
0.39119071 0.0040075285 0.059116472
0.39117759 0.0058132638 0.059086259
0.39292714 0.0078619979 0.060119472
0.39291406 0.0096637402 0.060089327
0.39290097 0.01146549 0.060059179
0.39288786 0.013267232 0.060029034
0.39287478 0.015068982 0.059998889
0.39286169 0.016870724 0.059968743
0.39284861 0.018672466 0.059938598
0.3928355 0.020474216 0.059908453
0.39282241 0.02227596 0.059878308
0.39280933 0.024077702 0.059848163
0.39455923 0.026082553 0.060882151
0.39454618 0.027880302 0.060852073
0.39453313 0.02967806 0.060821991
0.39452007 0.031475816 0.060791913
0.39450699 0.033273567 0.060761835
0.39449394 0.035071321 0.060731757
0.39448088 0.036869079 0.060701679
0.39446783 0.038666829 0.060671598
0.39249054 0.00038419664 0.057914894
0.39247742 0.0021899319 0.057884682
0.39422411 0.0042466703 0.058920547
0.39421102 0.00604842 0.058890402
0.39419791 0.0078501627 0.058860257
0.39418483 0.0096519049 0.058830112
0.39417174 0.011453655 0.058799967
0.39415866 0.013255397 0.058769822
0.39414555 0.015057147 0.058739677
0.39413247 0.016858889 0.058709528
0.39411938 0.018660631 0.058679383
0.3941063 0.020462381 0.058649238
0.39409319 0.022264125 0.058619093
0.3940801 0.024065867 0.058588948
0.3958272 0.026070744 0.059625726
0.39581415 0.027868493 0.059595648
0.3958011 0.029666251 0.05956557
0.39578801 0.031464007 0.059535488
0.39577496 0.033261757 0.05950541
0.39576191 0.035059512 0.059475332
0.39838934 0.037126034 0.061046176
0.39837632 0.038917802 0.061016198
0.39836329 0.040709578 0.060986217
0.39376414 0.00037233511 0.056652889
0.39375103 0.0021780704 0.056622677
0.39549491 0.0042348346 0.057661325
0.3954818 0.0060365847 0.057631176
0.39546871 0.0078383265 0.057601031
0.39545563 0.0096400697 0.057570886
0.39544255 0.011441819 0.057540741
0.39542943 0.013243562 0.057510596
0.39541635 0.015045311 0.057480451
0.39540327 0.016847054 0.057450306
0.39539018 0.018648796 0.057420161
0.39537707 0.020450545 0.057390016
0.39536399 0.022252288 0.057359871
0.3953509 0.024054032 0.057329722
0.39709517 0.026058935 0.05836929
0.39708212 0.027856683 0.058339212
0.39706907 0.029654441 0.058309134
0.39705601 0.031452198 0.058279056
0.39704293 0.033249948 0.058248978
0.3996661 0.035322499 0.059823904
0.39965308 0.037114266 0.059793927
0.39964005 0.038906034 0.059763949
0.39962706 0.040697809 0.059733968
0.39697763 0.042238723 0.058098584
0.39505085 -0.0014452618 0.055421088
0.39503774 0.0003604735 0.055390876
0.39677876 0.0024212571 0.056432255
0.39676568 0.0042229993 0.05640211
0.3967526 0.0060247495 0.056371965
0.39673948 0.0078264913 0.056341819
0.3967264 0.0096282344 0.056311674
0.39671332 0.011429984 0.056281526
0.39670023 0.013231726 0.056251381
0.39668712 0.015033476 0.056221236
0.39667404 0.016835218 0.05619109
0.39666095 0.018636961 0.056160945
0.39664787 0.02043871 0.0561308
0.39663476 0.022240452 0.056100655
0.39837623 0.024249367 0.057142947
0.39836314 0.026047125 0.057112865
0.39835009 0.027844874 0.057082787
0.39833704 0.029642632 0.057052709
0.39832395 0.031440388 0.057022631
0.3983109 0.033238139 0.056992553
0.40092984 0.035310727 0.058571666
0.40091681 0.037102494 0.058541685
0.40090382 0.038894262 0.058511708
0.4008908 0.040686037 0.058481731
0.40087777 0.042477801 0.058451749
0.39823252 0.044024669 0.056812081
0.39632446 -0.0014571233 0.054159082
0.39631134 0.00034861197 0.05412887
0.39804953 0.0024094216 0.055173039
0.39803645 0.0042111641 0.055142894
0.39802337 0.0060129138 0.055112749
0.39801028 0.007814656 0.055082604
0.39799717 0.0096163992 0.055052459
0.39798409 0.011418149 0.055022314
0.39972255 0.013451031 0.056066994
0.39970949 0.015248789 0.056036916
0.39969641 0.017046539 0.056006838
0.39968336 0.018844295 0.055976756
0.3996703 0.020642051 0.055946678
0.39965725 0.022439802 0.0559166
0.39964417 0.024237558 0.055886522
0.39963111 0.026035316 0.055856444
0.39961806 0.027833065 0.055826362
0.39960498 0.029630823 0.055796284
0.39959192 0.031428579 0.055766206
0.39957887 0.03322633 0.055736128
0.39956582 0.035024088 0.05570605
0.40218058 0.037090726 0.057289448
0.40216756 0.038882494 0.05725947
0.40215454 0.040674269 0.057229489
0.40214151 0.042466033 0.057199512
0.40212849 0.044257805 0.057169534
0.39061734 -0.0043430389 0.048619337
0.3949753 -0.0018636227 0.051281489
0.39496213 -5.1898194e-05 0.051251177
0.3975718 0.0021424857 0.052836653
0.39930722 0.0041993288 0.053883679
0.39929414 0.0060010785 0.053853534
0.39928105 0.0078028212 0.053823389
0.39926797 0.0096045639 0.053793244
0.39925486 0.011406314 0.053763099
0.40099052 0.013439223 0.054810569
0.40097746 0.015236979 0.054780491
0.40096438 0.01703473 0.054750413
0.40095133 0.018832486 0.054720331
0.40093827 0.020630244 0.054690253
0.40092519 0.022427993 0.054660175
0.40091214 0.024225749 0.054630097
0.40089908 0.026023507 0.054600019
0.40088603 0.027821256 0.054569941
0.40087295 0.029619014 0.054539859
0.40085989 0.03141677 0.054509781
0.40084684 0.033214521 0.054479703
0.40083376 0.035012279 0.054449625
0.40344432 0.037078954 0.056037199
0.4034313 0.038870722 0.056007218
0.40341827 0.040662497 0.05597724
0.40340528 0.042454261 0.055947263
0.40339226 0.044246033 0.055917282
0.39190221 -0.004355005 0.047346175
0.39450747 -0.0021386286 0.048935469
0.39623997 -6.3799045e-05 0.049984988
0.39622679 0.0017479181 0.049954675
0.39883229 0.0039363597 0.051544439
0.40056491 0.0059892433 0.052594323
0.40055183 0.007790986 0.052564174
0.40053874 0.0095927278 0.052534029
0.40052566 0.011394478 0.052503884
0.40051255 0.013196221 0.052473739
0.40224543 0.01522517 0.053524055
0.40223235 0.017022921 0.053493977
0.4004733 0.018601455 0.052383304
0.40046018 0.020403204 0.052353159
0.40219319 0.022416184 0.053403739
0.40218011 0.02421394 0.053373661
0.40216705 0.026011698 0.053343583
0.402154 0.027809447 0.053313505
0.40214092 0.029607205 0.053283427
0.40212786 0.031404961 0.053253349
0.40211481 0.033202711 0.053223267
0.40210176 0.03500047 0.053193189
0.40208867 0.036798224 0.053163111
0.40207562 0.038595974 0.053133033
0.40468201 0.040650729 0.054724999
0.40466902 0.042442493 0.054695021
0.40203643 0.043989241 0.053042796
0.40202338 0.045786995 0.053012718
0.39318705 -0.0043669716 0.046073012
0.3957881 -0.0021505558 0.047666494
0.39751777 -7.5699892e-05 0.048718799
0.39750463 0.0017360172 0.048688486
0.40010586 0.0039244979 0.050282434
0.40009275 0.0057302332 0.050252222
0.40007964 0.0075359684 0.050222009
0.40180951 0.0095808925 0.051274817
0.40179643 0.011382643 0.051244672
0.40178335 0.013184385 0.051214524
0.40177023 0.014986135 0.051184379
0.40175715 0.016787877 0.051154234
0.40174407 0.01858962 0.051124088
0.40173098 0.020391369 0.051093943
0.40171787 0.022193111 0.051063798
0.40170479 0.023994854 0.051033653
0.4016917 0.025796605 0.051003508
0.40167862 0.027598348 0.050973363
0.40166551 0.029400097 0.050943214
0.40165243 0.031201839 0.050913069
0.40338278 0.033190902 0.051966846
0.40336969 0.03498866 0.051936764
0.40335664 0.036786415 0.051906686
0.40334359 0.038584165 0.051876608
0.40333053 0.040381923 0.05184653
0.40331745 0.042179678 0.051816452
0.4033044 0.043977432 0.051786371
0.4015477 0.045615803 0.050671909
0.39274517 -0.0064717801 0.043745074
0.39447191 -0.0043789381 0.044799849
0.39706874 -0.0021624828 0.046397522
0.3987956 -8.7600747e-05 0.04745261
0.39878243 0.0017241164 0.047422297
0.40137947 0.0039126365 0.049020428
0.40136635 0.0057183718 0.048990216
0.40135324 0.0075241071 0.048960004
0.4013401 0.0093298424 0.048929792
0.40306723 0.011370807 0.049985446
0.40305412 0.01317255 0.049955301
0.40304103 0.0149743 0.049925156
0.40302795 0.016776042 0.049895011
0.40301487 0.018577784 0.049864866
0.40300176 0.020379534 0.049834717
0.40298867 0.022181276 0.049804572
0.40297559 0.023983018 0.049774427
0.40296251 0.025784768 0.049744282
0.40294939 0.027586512 0.049714137
0.40293631 0.029388262 0.049683992
0.40292323 0.031190004 0.049653847
0.40291014 0.032991745 0.049623702
0.40289703 0.034793496 0.049593557
0.40288395 0.036595237 0.049563412
0.40461156 0.038572356 0.050620183
0.40459847 0.040370114 0.050590105
0.40458542 0.042167872 0.050560027
0.40283158 0.043802224 0.049442828
0.4028185 0.045603968 0.049412683
0.4010646 0.047250293 0.048295338
0.38970327 -0.0089973677 0.039779652
0.39403284 -0.0064837728 0.042469122
0.39575675 -0.0043909042 0.043526694
0.39574352 -0.0025692051 0.043496218
0.39833617 -0.00035869991 0.045098167
0.40006027 0.0017122155 0.046156108
0.40004709 0.00352394 0.046125796
0.40263996 0.00570651 0.047728214
0.40262681 0.0075122453 0.047698002
0.4026137 0.0093179811 0.04766779
0.40260059 0.011123716 0.047637578
0.40258747 0.012929452 0.047607366
0.40257436 0.014735194 0.047577154
0.40256122 0.01654093 0.047546942
0.4025481 0.018346664 0.047516726
0.40253499 0.020152399 0.047486514
0.40252188 0.021958135 0.047456302
0.40250874 0.023763871 0.04742609
0.40249562 0.025569605 0.047395878
0.40248251 0.02737534 0.047365665
0.4024694 0.029181076 0.047335453
0.40245628 0.030986812 0.047305241
0.40244314 0.032792546 0.047275029
0.40243003 0.034598283 0.047244817
0.40241691 0.036404017 0.047214605
0.40414163 0.038385153 0.048274051
0.40412855 0.040186897 0.048243906
0.40411547 0.041988641 0.048213758
0.40410236 0.043790389 0.048183613
0.40235132 0.045432698 0.047063544
0.40233821 0.047238432 0.047033332
0.39798 0.048665527 0.044277929
0.39101133 -0.010845093 0.038527444
0.39273229 -0.0087342374 0.039587509
0.3953205 -0.0064957654 0.041193176
0.39530724 -0.0046700733 0.041162632
0.39702839 -0.0025811715 0.042223051
0.39961681 -0.00037062698 0.043829188
0.39960364 0.0014450829 0.043798808
0.4013249 0.0035120391 0.044859607
0.40131176 0.005323756 0.044829294
0.40390041 0.007500384 0.046435997
0.4038873 0.0093061188 0.046405785
0.40387419 0.011111855 0.046375573
0.40386108 0.012917589 0.046345361
0.40384793 0.014723333 0.046315148
0.40383482 0.016529068 0.046284936
0.40382171 0.018334802 0.046254724
0.40380859 0.020140538 0.046224512
0.40379545 0.021946274 0.0461943
0.40378234 0.023752009 0.046164088
0.40376922 0.025557743 0.046133876
0.40375611 0.027363479 0.046103664
0.403743 0.029169215 0.046073452
0.40372986 0.030974949 0.04604324
0.40371674 0.032780685 0.046013027
0.40370363 0.034586418 0.045982815
0.40369052 0.036392156 0.045952603
0.40367737 0.038197897 0.045922391
0.40366426 0.040003628 0.045892179
0.40365115 0.041809361 0.045861967
0.40363804 0.043615095 0.045831755
0.40362492 0.045420837 0.045801539
0.40100899 0.04699336 0.04413211
0.40099582 0.048805084 0.044101797
0.39924744 0.050469313 0.042978574
0.3923327 -0.014528477 0.037305944
0.39231935 -0.012692817 0.037275232
0.39230603 -0.010857151 0.037244517
0.39402416 -0.0087462692 0.038307372
0.39660817 -0.0065077581 0.039917223
0.39659491 -0.0046820659 0.03988668
0.39831322 -0.0025931378 0.040949889
0.39829999 -0.0007714387 0.040919408
0.40088424 0.0014331558 0.042529829
0.40087107 0.0032488732 0.042499449
0.40258956 0.0053118556 0.043563105
0.40257639 0.0071235797 0.043532792
0.40256324 0.0089353044 0.04350248
0.40255007 0.010747021 0.043472167
0.40513465 0.012905728 0.045083355
0.40512154 0.014711471 0.045053143
0.40510842 0.016517207 0.045022931
0.40509531 0.018322941 0.044992719
0.40248427 0.019805629 0.043320607
0.4024711 0.021617353 0.043290295
0.40245792 0.023429079 0.043259982
0.40244478 0.025240796 0.043229669
0.40243161 0.02705252 0.043199357
0.40241843 0.028864237 0.043169044
0.40240529 0.030675961 0.043138731
0.40239212 0.032487687 0.043108422
0.40237895 0.034299403 0.04307811
0.40236577 0.036111128 0.043047797
0.40495098 0.038186036 0.044660386
0.40493786 0.039991766 0.044630174
0.40492475 0.0417975 0.044599961
0.40491164 0.043603234 0.044569749
0.40229997 0.045169741 0.042896233
0.4022868 0.046981461 0.042865921
0.40227365 0.048793186 0.042835608
0.40052807 0.050457388 0.041709594
0.39791617 0.052057806 0.040035512
0.39104787 -0.01681301 0.034409557
0.39362741 -0.014540534 0.036023024
0.39361405 -0.012704875 0.035992313
0.39532936 -0.010589975 0.037057891
0.39531606 -0.0087583009 0.037027244
0.39530274 -0.0069266199 0.036996599
0.39788258 -0.0046940586 0.038610727
0.39786932 -0.0028683667 0.038580179
0.39785606 -0.001042682 0.038549632
0.39784279 0.00078301004 0.038519088
0.39955837 0.0028599859 0.0395853
0.39954513 0.004681685 0.039554819
0.3995319 0.0065033841 0.039524339
0.40211213 0.0086840838 0.041139334
0.40209892 0.010499793 0.041108955
0.40208572 0.012315503 0.041078575
0.40207255 0.014131221 0.041048195
0.40378839 0.016170288 0.042115044
0.40204614 0.01776264 0.040987439
0.40203297 0.019578351 0.04095706
0.40201977 0.021394068 0.04092668
0.4020066 0.023209779 0.0408963
0.40199339 0.025025487 0.04086592
0.40198019 0.026841205 0.040835544
0.40369627 0.028852336 0.041902855
0.40195382 0.030472625 0.040774785
0.40366992 0.032475784 0.041842233
0.40365678 0.034287501 0.041811921
0.40364361 0.036099225 0.041781608
0.40363044 0.037910953 0.041751295
0.40361729 0.039722677 0.041720983
0.40360412 0.041534398 0.04169067
0.40359095 0.043346118 0.041660357
0.4035778 0.045157839 0.041630045
0.40183508 0.046814032 0.040501371
0.40182188 0.048629746 0.040470995
0.40180871 0.05044546 0.040440615
0.39920101 0.052045841 0.038762357
0.39918777 0.053867541 0.038731877
0.3923468 -0.016825108 0.033122454
0.39492211 -0.014552593 0.034740098
0.39490879 -0.012716934 0.034709387
0.39662126 -0.010602007 0.035777751
0.39660797 -0.0087703336 0.035747107
0.39659464 -0.0069386521 0.035716459
0.39658135 -0.0051069781 0.035685815
0.39915699 -0.0028803591 0.037304237
0.39914373 -0.0010546745 0.03727369
0.39913046 0.00077101751 0.037243143
0.3991172 0.0025967022 0.037212599
0.39910394 0.0044223941 0.037182052
0.39909068 0.0062480788 0.037151504
0.40080354 0.0083131175 0.038220696
0.4007903 0.010134816 0.03819022
0.40336636 0.012303576 0.039809596
0.40335318 0.014119294 0.03977922
0.40333998 0.015935004 0.03974884
0.40332678 0.017750714 0.03971846
0.40331361 0.019566424 0.039688081
0.4033004 0.02138214 0.039657701
0.4032872 0.02319785 0.039627321
0.40327403 0.02501356 0.039596945
0.40067118 0.026530094 0.037915904
0.40065792 0.028351793 0.037885424
0.40064469 0.030173492 0.037854947
0.40063146 0.031995192 0.037824467
0.40320808 0.034092125 0.039445046
0.40319487 0.035907835 0.03941467
0.40318167 0.037723552 0.039384291
0.4031685 0.039539255 0.039353911
0.4031553 0.041354969 0.039323531
0.40314209 0.043170683 0.039293151
0.40312892 0.044986397 0.039262772
0.40311572 0.046802107 0.039232396
0.40051234 0.048390482 0.037550151
0.40049911 0.050212175 0.037519675
0.40048587 0.052033875 0.037489194
0.40047264 0.053855576 0.037458714
0.40045941 0.055677269 0.037428237
0.3936457 -0.016837206 0.031835351
0.39363232 -0.014995549 0.031804539
0.39620349 -0.012728992 0.033426467
0.39619014 -0.010893325 0.033395756
0.39617679 -0.0090576587 0.033365041
0.39788654 -0.0069506839 0.034436334
0.39787322 -0.0051190099 0.034405686
0.39785993 -0.0032873361 0.034375038
0.39784661 -0.0014556622 0.034344394
0.39783329 0.00037601162 0.034313746
0.40040487 0.0025847096 0.035936646
0.40039161 0.0044104015 0.035906099
0.40037835 0.0062360861 0.035875551
0.40036508 0.0080617778 0.035845008
0.40207514 0.01012285 0.036917053
0.40206191 0.011944549 0.036886577
0.40204868 0.013766249 0.036856096
0.40203544 0.01558794 0.036825616
0.40202221 0.017409639 0.036795136
0.40200898 0.019231338 0.036764659
0.40199575 0.021053039 0.036734179
0.40198249 0.022874737 0.036703698
0.40196925 0.024696436 0.036673222
0.40195602 0.026518127 0.036642741
0.40194279 0.028339827 0.036612261
0.40192956 0.030161526 0.036581781
0.40191633 0.031983227 0.036551304
0.40190309 0.033804923 0.036520824
0.40188986 0.035626624 0.036490344
0.40187663 0.037448324 0.036459867
0.40186337 0.039270021 0.036429387
0.40185013 0.041091722 0.036398906
0.4018369 0.042913418 0.036368426
0.40182367 0.044735115 0.036337949
0.40181044 0.046556816 0.036307469
0.40179721 0.048378516 0.036276989
0.40178397 0.050200209 0.036246508
0.40177074 0.05202191 0.036216032
0.40175748 0.05384361 0.036185551
0.40174425 0.055665303 0.036155071
0.40173101 0.057487004 0.036124595
0.39999366 0.059181057 0.034989718
0.39494464 -0.016849302 0.030548239
0.39493126 -0.015007647 0.030517425
0.39491788 -0.013165998 0.030486614
0.39748484 -0.010905383 0.032112837
0.39747149 -0.0090697166 0.032082126
0.39745817 -0.00723405 0.032051411
0.39916512 -0.0051310421 0.03312555
0.3991518 -0.0032993681 0.033094902
0.39913851 -0.0014676942 0.033064254
0.39912519 0.00036397966 0.033033609
0.3991119 0.0021956535 0.033002961
0.39909858 0.0040273275 0.032972317
0.39908528 0.0058590011 0.032941669
0.40165272 0.0080497861 0.034569062
0.40163946 0.0098754698 0.034538519
0.4016262 0.011701162 0.034507971
0.40161294 0.013526854 0.034477424
0.40332031 0.015575973 0.035552453
0.40330705 0.017397672 0.035521973
0.40329382 0.019219372 0.035491493
0.40328059 0.021041071 0.035461016
0.40326735 0.02286277 0.035430536
0.40153337 0.024480984 0.034294151
0.40152007 0.026306668 0.034263603
0.40150681 0.02813236 0.034233056
0.40149355 0.029958045 0.034202512
0.40148029 0.031783737 0.034171965
0.40146703 0.033609431 0.034141418
0.40145376 0.035435114 0.034110874
0.4014405 0.037260808 0.034080327
0.40142724 0.039086491 0.034049779
0.40141398 0.040912177 0.034019236
0.40140072 0.042737868 0.033988688
0.40138745 0.044563554 0.033958144
0.40137416 0.046389244 0.033927597
0.4013609 0.048214931 0.03389705
0.40134764 0.050040621 0.033866506
0.40305558 0.052009944 0.034942869
0.40304235 0.053831641 0.034912389
0.40302911 0.055653337 0.034881908
0.40129459 0.057343375 0.03374432
0.40128133 0.059169065 0.033713773
0.39868602 0.060809236 0.032022286
0.39452624 -0.01715271 0.028153844
0.39623019 -0.015019744 0.029230323
0.39621681 -0.013178095 0.029199511
0.39620343 -0.011336447 0.029168697
0.39619005 -0.0094947908 0.029137883
0.39875287 -0.0072461083 0.030768484
0.39873955 -0.0054104412 0.030737771
0.3987262 -0.0035747821 0.030707058
0.40043038 -0.0014797261 0.031784128
0.40041709 0.00035194779 0.03175348
0.40040377 0.0021836217 0.031722836
0.40039048 0.0040152953 0.031692188
0.40037715 0.0058469693 0.031661544
0.40036386 0.0076786433 0.031630896
0.40292713 0.0098634772 0.033262566
0.40291387 0.011689169 0.033232018
0.40290061 0.013514861 0.033201471
0.40288734 0.015340546 0.033170927
0.40287408 0.017166238 0.03314038
0.40286082 0.018991923 0.033109833
0.40284756 0.020817615 0.033079289
0.4028343 0.0226433 0.033048742
0.40282103 0.024468992 0.033018194
0.40280777 0.026294677 0.03298765
0.40279448 0.028120369 0.032957103
0.40278122 0.029946053 0.032926559
0.40276796 0.031771746 0.032896012
0.40275469 0.033597436 0.032865465
0.40274143 0.035423122 0.032834921
0.40272817 0.037248813 0.032804374
0.40271491 0.039074499 0.032773826
0.40270165 0.040900186 0.032743283
0.40268838 0.042725876 0.032712735
0.40267512 0.044551563 0.032682188
0.40266186 0.046377253 0.032651644
0.40264857 0.048202939 0.032621097
0.40263531 0.05002863 0.032590549
0.40262204 0.051854316 0.032560006
0.40260878 0.053680006 0.032529458
0.40259552 0.055505693 0.032498915
0.40258226 0.05733138 0.032468367
0.402569 0.059157073 0.03243782
0.39997792 0.060797203 0.030742157
0.3999646 0.06262888 0.030711511
0.39584139 -0.019010475 0.026894832
0.39582798 -0.017164834 0.026863953
0.39581457 -0.015319193 0.026833072
0.39751574 -0.013190193 0.027912408
0.39750236 -0.011348544 0.027881594
0.39748898 -0.0095068878 0.027850782
0.3974756 -0.0076652397 0.027819969
0.40003425 -0.0054224995 0.029454853
0.4000209 -0.0035868401 0.02942414
0.40000758 -0.0017511734 0.029393427
0.39999422 8.4493251e-05 0.029362714
0.3999809 0.0019201599 0.029332001
0.39996755 0.0037558267 0.029301288
0.40166906 0.0058349376 0.030381406
0.40165573 0.0076666111 0.03035076
0.40164244 0.0094982851 0.030320112
0.40162912 0.011329959 0.030289466
0.40161583 0.013161641 0.030258819
0.40160251 0.014993315 0.030228173
0.40416175 0.017154247 0.031864427
0.40414849 0.018979929 0.03183388
0.40413523 0.020805622 0.031803336
0.40412197 0.022631306 0.031772789
0.4041087 0.024456998 0.031742241
0.40152267 0.025983358 0.030044297
0.40408218 0.028108375 0.03168115
0.40406889 0.02993406 0.031650603
0.40405563 0.031759754 0.031620059
0.40146944 0.033310059 0.029921712
0.40145612 0.035141733 0.029891066
0.40144283 0.036973409 0.02986042
0.4014295 0.038805075 0.029829774
0.40141621 0.040636748 0.029799128
0.40397605 0.042713881 0.031436782
0.40396279 0.044539571 0.031406235
0.40394953 0.046365257 0.031375691
0.40393627 0.048190948 0.031345144
0.40392298 0.050016634 0.031314597
0.40390971 0.051842324 0.031284053
0.40389645 0.053668011 0.031253505
0.40388319 0.055493701 0.03122296
0.40386993 0.057319388 0.031192414
0.40128312 0.058953498 0.029492665
0.40126979 0.060785171 0.029462019
0.4012565 0.062616847 0.029431373
0.40124318 0.064448521 0.029400727
0.39714313 -0.019022599 0.025604941
0.39712971 -0.017176958 0.02557406
0.3971163 -0.015331317 0.025543181
0.39710289 -0.013485675 0.0255123
0.39708948 -0.011640034 0.025481422
0.39707607 -0.0097943926 0.025450541
0.39706266 -0.0079487506 0.025419662
0.39876115 -0.0058356887 0.026502043
0.39874777 -0.0039940327 0.026471229
0.39873439 -0.002152384 0.026440417
0.39872101 -0.00031073554 0.026409604
0.39870763 0.0015309205 0.02637879
0.40126225 0.0037437684 0.028018359
0.40124893 0.0055794278 0.027987648
0.40123558 0.0074150944 0.027956935
0.40122226 0.009250761 0.027926221
0.40120891 0.011086428 0.027895508
0.40119559 0.012922094 0.027864795
0.40118223 0.014757754 0.027834082
0.40288109 0.016812956 0.0289174
0.40286779 0.018644631 0.028886754
0.40285447 0.020476304 0.028856108
0.40284115 0.022307977 0.028825462
0.40282786 0.024139652 0.028794816
0.40281454 0.025971325 0.02876417
0.40280125 0.027803 0.028733524
0.40278792 0.029634673 0.028702877
0.40277463 0.031466346 0.028672231
0.40276131 0.033298027 0.028641583
0.40274802 0.035129704 0.028610937
0.4027347 0.036961377 0.028580291
0.40272141 0.038793042 0.028549645
0.40270808 0.040624715 0.028518999
0.40269476 0.042456392 0.028488353
0.40268147 0.044288069 0.028457707
0.40266815 0.046119742 0.028427061
0.40265486 0.047951419 0.028396415
0.40264153 0.049783092 0.028365768
0.40262824 0.051614769 0.028335122
0.40261492 0.053446442 0.028304476
0.40260163 0.055278115 0.02827383
0.40258831 0.057109788 0.028243184
0.40257502 0.058941465 0.028212538
0.40084881 0.060649384 0.027066259
0.40254837 0.062604815 0.028151246
0.40253508 0.064436488 0.0281206
0.40080881 0.06615638 0.026974119
0.39588162 -0.019477786 0.022641726
0.39586818 -0.017626164 0.022610744
0.39585471 -0.015774533 0.022579765
0.39840463 -0.013497799 0.024222409
0.39839122 -0.011652158 0.024191529
0.39837781 -0.0098065156 0.02416065
0.39836439 -0.0079608746 0.024129769
0.39835098 -0.0061152331 0.02409889
0.39833757 -0.0042695915 0.024068009
0.4000333 -0.0021644814 0.025153315
0.40001991 -0.00032283296 0.025122501
0.40000653 0.001518823 0.025091689
0.39999315 0.0033604715 0.025060875
0.39997977 0.0052021202 0.025030062
0.39996639 0.0070437761 0.02499925
0.39995301 0.0088854246 0.024968436
0.39993966 0.010727073 0.024937622
0.40249029 0.012910036 0.026581878
0.40247694 0.014745696 0.026551165
0.40246361 0.016581362 0.026520452
0.40245026 0.018417029 0.026489738
0.40243694 0.020252695 0.026459025
0.40242359 0.022088354 0.026428312
0.40241027 0.023924021 0.026397601
0.40239692 0.02575969 0.026366888
0.40238357 0.027595356 0.026336174
0.40237024 0.029431023 0.026305461
0.40235689 0.031266682 0.026274748
0.40234357 0.033102348 0.026244035
0.40233022 0.034938015 0.026213322
0.4023169 0.036773682 0.026182609
0.40230355 0.038609348 0.026151896
0.40229023 0.040445007 0.026121182
0.40227687 0.042280674 0.026090471
0.40226355 0.044116341 0.026059758
0.4022502 0.045952003 0.026029045
0.40223688 0.04778767 0.025998332
0.40393344 0.049771063 0.02708563
0.40392014 0.051602736 0.027054984
0.40390682 0.053434409 0.027024338
0.4038935 0.055266082 0.026993692
0.40217018 0.056965996 0.025844766
0.40215686 0.058801658 0.025814055
0.40214351 0.060637325 0.025783341
0.40213019 0.062472992 0.025752628
0.40211684 0.064308658 0.025721915
0.40210351 0.066144325 0.025691202
0.39718759 -0.01948995 0.021347648
0.39717412 -0.017638328 0.021316668
0.39716068 -0.015786696 0.021285689
0.39714724 -0.013935066 0.021254709
0.39713377 -0.012083443 0.021223728
0.39712033 -0.010231812 0.021192748
0.39710686 -0.0083801886 0.021161769
0.39965275 -0.006127357 0.022808986
0.39963934 -0.0042817155 0.022778107
0.39962593 -0.0024360742 0.022747226
0.39961252 -0.00059043273 0.022716347
0.39959911 0.0012552086 0.022685466
0.40129209 0.003348374 0.023773773
0.4012787 0.0051900228 0.023742959
0.40126532 0.0070316787 0.023712147
0.40125194 0.0088733276 0.023681333
0.40123856 0.010714976 0.02365052
0.40122518 0.012556632 0.023619708
0.4012118 0.014398281 0.023588894
0.40119842 0.016239928 0.02355808
0.40118504 0.018081585 0.023527268
0.40373164 0.020240638 0.025176099
0.40371829 0.022076298 0.025145385
0.40370497 0.023911964 0.025114672
0.40369162 0.025747631 0.025083959
0.4036783 0.027583297 0.025053246
0.40366495 0.029418964 0.025022533
0.40365162 0.031254623 0.02499182
0.40363827 0.03309029 0.024961106
0.40362495 0.034925956 0.024930393
0.4036116 0.036761623 0.02489968
0.40359828 0.038597289 0.024868969
0.40358493 0.040432949 0.024838256
0.40357161 0.042268615 0.024807543
0.40355825 0.044104282 0.024776829
0.40354493 0.045939945 0.024746116
0.40353158 0.047775611 0.024715403
0.40351826 0.049611278 0.02468469
0.40350491 0.051446941 0.024653977
0.40349156 0.053282607 0.024623264
0.40347824 0.05511827 0.024592552
0.40346488 0.056953937 0.024561839
0.40345156 0.0587896 0.024531126
0.4008773 0.060439549 0.022818567
0.40086392 0.062281203 0.022787753
0.40341154 0.064296596 0.024438987
0.40083715 0.065964505 0.022726128
0.3968038 -0.021653164 0.018963443
0.39849356 -0.019502113 0.020053571
0.39848009 -0.017650491 0.020022592
0.39846665 -0.015798859 0.019991612
0.39845318 -0.013947229 0.019960631
0.39843974 -0.012095605 0.019929651
0.39842629 -0.010243975 0.019898672
0.39841282 -0.0083923517 0.01986769
0.39839938 -0.0065407208 0.019836711
0.39838591 -0.0046890979 0.019805731
0.40092766 -0.0024481977 0.021457335
0.40091425 -0.00060255639 0.021426454
0.40090084 0.001243085 0.021395575
0.40088743 0.0030887264 0.021364694
0.40087402 0.0049343677 0.021333816
0.40256426 0.0070195813 0.022425044
0.40255088 0.0088612298 0.022394231
0.40253749 0.010702878 0.022363419
0.40252411 0.012544534 0.022332605
0.40251073 0.014386183 0.022301791
0.40249735 0.016227832 0.022270979
0.40248397 0.018069487 0.022240166
0.40247059 0.019911136 0.022209352
0.40245721 0.021752784 0.02217854
0.40244383 0.023594441 0.022147726
0.40243044 0.025436088 0.022116913
0.40241706 0.027277738 0.022086101
0.40240368 0.029119385 0.022055287
0.4023903 0.030961042 0.022024473
0.40237692 0.03280269 0.021993661
0.40236354 0.034644339 0.021962848
0.40235016 0.036485996 0.021932034
0.40233678 0.038327642 0.021901222
0.4023234 0.040169291 0.021870408
0.40486631 0.042256556 0.023524625
0.40485296 0.044092223 0.023493912
0.40228325 0.045694247 0.021777969
0.40226987 0.047535896 0.021747155
0.40225649 0.049377546 0.021716343
0.40224311 0.051219199 0.02168553
0.40222973 0.053060852 0.021654716
0.40221635 0.054902498 0.021623904
0.40220296 0.056744151 0.02159309
0.40218958 0.058585804 0.021562276
0.40047175 0.060303617 0.02040742
0.40216282 0.062269103 0.021500651
0.40214944 0.064110756 0.021469837
0.40043151 0.065840542 0.020314779
0.39811257 -0.021665353 0.017666576
0.39809909 -0.019809738 0.01763553
0.39808562 -0.01795412 0.017604483
0.39977261 -0.015811022 0.018697534
0.39975914 -0.013959392 0.018666554
0.3997457 -0.012107768 0.018635575
0.39973223 -0.010256138 0.018604593
0.39971879 -0.0084045148 0.018573614
0.39970535 -0.0065528839 0.018542634
0.39969188 -0.0047012605 0.018511655
0.39967844 -0.0028496301 0.018480673
0.39966497 -0.00099799933 0.018449694
0.40220258 0.0012309614 0.020105682
0.40218917 0.0030766027 0.020074803
0.40217575 0.0049222442 0.020043923
0.40216234 0.0067678853 0.020013044
0.40214893 0.0086135268 0.019982163
0.40213552 0.010459168 0.019951284
0.40212211 0.012304817 0.019920403
0.4021087 0.014150458 0.019889524
0.40209532 0.0159961 0.019858643
0.40208191 0.017841741 0.019827764
0.4020685 0.019687383 0.019796884
0.40375614 0.021740686 0.020891426
0.40374276 0.023582343 0.020860614
0.40372938 0.025423991 0.020829801
0.40201485 0.027069949 0.019673364
0.40370262 0.029107289 0.020768175
0.40368924 0.030948944 0.020737361
0.40367585 0.032790594 0.020706547
0.40366247 0.034632243 0.020675736
0.40364909 0.036473896 0.020644922
0.40363571 0.038315546 0.020614108
0.40362233 0.040157195 0.020583296
0.40360895 0.041998848 0.020552482
0.40359557 0.043840494 0.020521669
0.40358219 0.045682147 0.020490857
0.4035688 0.0475238 0.020460043
0.40185392 0.049217645 0.019302806
0.40184051 0.051063284 0.019271927
0.40182713 0.052908927 0.019241046
0.40181372 0.05475457 0.019210165
0.4018003 0.056600209 0.019179286
0.40178689 0.058445852 0.019148406
0.40177348 0.060291491 0.019117527
0.40176007 0.062137134 0.019086646
0.40174666 0.063982777 0.019055767
0.39687505 -0.022126753 0.014679759
0.39940786 -0.019821927 0.016338663
0.39939439 -0.01796631 0.016307617
0.39938092 -0.016110687 0.01627657
0.39936742 -0.014255071 0.016245523
0.40105167 -0.012119931 0.017341496
0.39934045 -0.010543838 0.01618343
0.39932698 -0.0086882152 0.016152382
0.39931351 -0.0068325992 0.016121335
0.40099785 -0.0047134236 0.017217577
0.40098441 -0.0028617929 0.017186597
0.40097094 -0.0010101624 0.017155617
0.40095749 0.00084146083 0.017124638
0.40094402 0.0026930915 0.017093657
0.40093058 0.0045447145 0.017062677
0.40346408 0.0067557618 0.018723151
0.40345067 0.0086014029 0.018692272
0.40343729 0.010447045 0.018661391
0.40342388 0.012292693 0.018630512
0.40341046 0.014138334 0.018599631
0.40339705 0.015983976 0.018568752
0.40338364 0.017829617 0.018537872
0.40337023 0.019675259 0.018506993
0.40335682 0.0215209 0.018476112
0.40334341 0.023366543 0.018445233
0.40333 0.025212184 0.018414352
0.40331659 0.027057825 0.018383471
0.40330318 0.028903466 0.018352592
0.40328977 0.030749107 0.018321712
0.40327635 0.032594748 0.018290833
0.40326294 0.034440391 0.018259952
0.40324953 0.03628603 0.018229073
0.40323612 0.038131673 0.018198192
0.40322271 0.039977316 0.018167313
0.4032093 0.041822955 0.018136432
0.40319589 0.043668598 0.018105553
0.40318248 0.045514237 0.018074673
0.40316907 0.04735988 0.018043794
0.40315568 0.049205519 0.018012913
0.40314227 0.051051162 0.017982034
0.40312886 0.052896805 0.017951153
0.40311545 0.054742444 0.017920274
0.40310204 0.056588087 0.017889393
0.40308863 0.058433726 0.017858515
0.40307522 0.060279369 0.017827634
0.40306181 0.062125012 0.017796755
0.4030484 0.063970655 0.017765874
0.39395121 -0.022887731 0.010555103
0.39817452 -0.020277377 0.01334756
0.40070316 -0.017978499 0.01501076
0.40068969 -0.016122876 0.014979714
0.40067619 -0.014267259 0.014948667
0.40066272 -0.012411644 0.01491762
0.40064922 -0.010556027 0.014886573
0.40063575 -0.0087004043 0.014855526
0.40062228 -0.0068447879 0.01482448
0.40060878 -0.0049891719 0.014793432
0.40059531 -0.0031335559 0.014762386
0.40058181 -0.0012779324 0.014731339
0.40056834 0.00057768356 0.014700293
0.40224999 0.0026809284 0.01579958
0.40223655 0.0045325519 0.015768601
0.40222308 0.0063841823 0.015737619
0.40220964 0.0082358057 0.01570664
0.4021962 0.010087436 0.01567566
0.40218273 0.011939066 0.015644681
0.40216929 0.01379069 0.0156137
0.40215582 0.015642321 0.01558272
0.40214238 0.017493945 0.01555174
0.40212893 0.019345574 0.01552076
0.40465856 0.021508778 0.017186219
0.40464514 0.023354419 0.01715534
0.40463173 0.02520006 0.017124459
0.40461832 0.027045701 0.01709358
0.40460491 0.028891342 0.017062699
0.4045915 0.030736983 0.01703182
0.40457809 0.032582626 0.01700094
0.40456468 0.034428265 0.016970061
0.40455127 0.036273908 0.01693918
0.40453786 0.038119551 0.016908301
0.40452445 0.03996519 0.01687742
0.40451103 0.041810833 0.016846541
0.40449762 0.043656472 0.016815661
0.40448424 0.045502115 0.016784782
0.40447083 0.047347754 0.016753901
0.40445742 0.049193397 0.016723022
0.40444401 0.05103904 0.016692141
0.4044306 0.052884679 0.016661262
0.40441719 0.054730322 0.016630381
0.40440378 0.056575961 0.016599502
0.40439036 0.058421604 0.016568622
0.40183294 0.060081378 0.014839199
0.4018195 0.061933003 0.014808219
0.40180606 0.063784629 0.014777239
0.40009648 0.06552431 0.013613654
0.39584267 0.067110047 0.010750982
0.39779553 -0.020585144 0.010914195
0.39778197 -0.018719554 0.010882982
0.39946046 -0.016566401 0.011984225
0.39944693 -0.014704796 0.011953078
0.3994334 -0.012843191 0.011921931
0.39941987 -0.010981586 0.011890784
0.39940637 -0.00911998 0.011859637
0.39939284 -0.0072583826 0.011828491
0.39937931 -0.0053967773 0.011797343
0.39936578 -0.0035351717 0.011766196
0.39935225 -0.0016735665 0.011735049
0.39933872 0.00018803882 0.011703902
0.39932519 0.0020496368 0.011672756
0.39931169 0.0039112419 0.011641609
0.40183666 0.0061323498 0.013310285
0.40182319 0.0079879658 0.013279239
0.40180969 0.0098435823 0.013248191
0.40179622 0.011699198 0.013217145
0.40178275 0.013554822 0.013186098
0.40176925 0.015410437 0.013155052
0.40175578 0.017266054 0.013124004
0.40174228 0.019121677 0.013092957
0.40172881 0.020977294 0.013061911
0.40171534 0.02283291 0.013030864
0.40170184 0.024688525 0.012999817
0.40168837 0.026544148 0.01296877
0.40336764 0.028591549 0.014071772
0.40335417 0.030443173 0.014040792
0.40334073 0.032294802 0.014009812
0.40332726 0.034146428 0.013978832
0.40331382 0.035998058 0.013947852
0.40330037 0.03784968 0.013916872
0.4032869 0.039701313 0.013885892
0.40327346 0.041552939 0.013854912
0.40325999 0.043404564 0.013823932
0.40324655 0.045256194 0.013792952
0.40323311 0.047107823 0.013761972
0.40321964 0.048959449 0.013730992
0.4032062 0.050811078 0.013700012
0.40319273 0.052662704 0.013669032
0.40317929 0.05451433 0.013638052
0.40316582 0.056365956 0.013607072
0.40145916 0.058089651 0.012440975
0.40144569 0.05994527 0.012409928
0.40143222 0.061800886 0.012378882
0.40141872 0.063656509 0.012347834
0.39886534 0.06534417 0.010613759
0.39885181 0.067205772 0.010582612
0.3990978 -0.018731808 0.0095791407
0.39908424 -0.016866211 0.0095479265
0.39907068 -0.015000619 0.0095167132
0.39905712 -0.013135022 0.009485499
0.39904359 -0.011269431 0.0094542857
0.39903003 -0.0094038323 0.0094230715
0.39901647 -0.0075382418 0.0093918582
0.39900291 -0.0056726434 0.009360644
0.39898935 -0.0038070527 0.0093294308
0.39897579 -0.0019414546 0.0092982166
0.39896226 -7.5863907e-05 0.0092670033
0.40063819 0.0020374081 0.010371704
0.40062469 0.0038990134 0.010340557
0.40061116 0.005760619 0.01030941
0.40059763 0.0076222243 0.010278263
0.4005841 0.0094838291 0.010247116
0.40057057 0.011345427 0.010215969
0.40055704 0.013207032 0.010184823
0.40054354 0.015068638 0.010153675
0.40053001 0.016930243 0.010122528
0.40051648 0.018791849 0.010091381
0.40050295 0.020653455 0.010060234
0.40302411 0.02282072 0.011733997
0.40301064 0.024676336 0.01170295
0.40299714 0.026531959 0.011671904
0.40298367 0.028387576 0.011640857
0.40297017 0.030243192 0.011609809
0.40295669 0.032098807 0.011578763
0.40294322 0.03395443 0.011547716
0.40292972 0.035810046 0.01151667
0.40291625 0.037665665 0.011485623
0.40290278 0.039521281 0.011454576
0.40457943 0.041540775 0.012560835
0.40456596 0.043392401 0.012529855
0.40286231 0.045088135 0.011361436
0.40284884 0.046943754 0.011330388
0.40283537 0.048799373 0.011299342
0.40282187 0.050654992 0.011268295
0.4028084 0.052510612 0.011237249
0.4027949 0.054366227 0.011206201
0.40278143 0.056221846 0.011175155
0.40276796 0.058077462 0.011144108
0.40275446 0.059933081 0.011113062
0.40274099 0.061788697 0.011082014
0.40272751 0.06364432 0.011050967
0.40017834 0.065331943 0.0093127079
0.40016481 0.067193545 0.0092815608
0.39846072 0.068951137 0.0081120962
0.3978841 -0.019181453 0.0065684076
0.40040004 -0.016878465 0.0082440851
0.40038651 -0.015012874 0.0082128718
0.40037295 -0.013147276 0.0081816576
0.40035939 -0.011281685 0.0081504444
0.40034583 -0.0094160875 0.0081192302
0.40033227 -0.0075504966 0.0080880169
0.40031874 -0.0056848982 0.0080568027
0.40030518 -0.0038193075 0.0080255894
0.40029162 -0.0019537094 0.0079943752
0.40027806 -8.8118657e-05 0.0079631619
0.4002645 0.0017774795 0.0079319477
0.40025094 0.0036430701 0.0079007344
0.40023741 0.0055086683 0.0078695202
0.40022385 0.0073742592 0.0078383069
0.40021029 0.0092398571 0.0078070932
0.40019673 0.011105448 0.0077758795
0.40187004 0.013194804 0.0088837706
0.40185654 0.01505641 0.0088526234
0.40184301 0.016918015 0.0088214763
0.40182948 0.018779621 0.00879033
0.40181595 0.020641224 0.0087591829
0.40180242 0.022502823 0.0087280357
0.40178889 0.024364429 0.0086968886
0.40177536 0.026226034 0.0086657414
0.40176186 0.028087638 0.0086345952
0.40174833 0.029949244 0.008603448
0.4017348 0.031810842 0.0085723009
0.40172127 0.033672448 0.0085411537
0.40170774 0.035534054 0.0085100075
0.40169421 0.03739566 0.0084788604
0.40168071 0.039257262 0.0084477132
0.40166718 0.041118864 0.0084165661
0.40165365 0.042980466 0.0083854198
0.40164012 0.044842072 0.0083542727
0.40162659 0.046703678 0.0083231255
0.40414414 0.048787184 0.010002475
0.40413067 0.0506428 0.0099714287
0.40158603 0.052288488 0.008229685
0.4015725 0.05415009 0.0081985379
0.40155897 0.056011695 0.0081673907
0.40154544 0.057873297 0.0081362436
0.4015319 0.059734903 0.0081050964
0.40151837 0.061596509 0.0080739502
0.40150487 0.063458107 0.008042803
0.40149134 0.065319717 0.0080116559
0.40170231 -0.015025129 0.00690903
0.40168875 -0.013159531 0.0068778163
0.40167522 -0.01129394 0.0068466025
0.40166166 -0.0094283419 0.0068153888
0.4016481 -0.007562751 0.0067841751
0.40163454 -0.005697153 0.0067529613
0.40162098 -0.0038315624 0.0067217476
0.40160742 -0.0019659642 0.0066905338
0.40159389 -0.0001003734 0.0066593201
0.40158033 0.0017652247 0.0066281063
0.40156677 0.0036308155 0.0065968931
0.40155321 0.0054964134 0.0065656793
0.40153965 0.0073620044 0.0065344656
0.40152612 0.0092276027 0.0065032518
0.40151256 0.011093194 0.0064720381
0.401499 0.012958791 0.0064408244
0.40293959 0.046691447 0.007022074
0.40292606 0.04855305 0.0069909268
0.40291256 0.050414655 0.0069597801
0.40289903 0.052276257 0.006928633
