# .PCD v0.7 - Point Cloud Data file format
VERSION 0.7
FIELDS x y z
SIZE 4 4 4
TYPE F F F
COUNT 1 1 1
WIDTH 1368
HEIGHT 1
VIEWPOINT 0 0 0 1 0 0 0
POINTS 1368
DATA ascii
0.44053373 0.024557987 0.10561035
0.44051942 0.026112067 0.10559151
0.44050509 0.027666137 0.10557268
0.44049078 0.029220207 0.10555385
0.44047645 0.030774286 0.10553502
0.44046214 0.032328356 0.10551618
0.44044781 0.033882435 0.10549735
0.44043347 0.035436504 0.10547852
0.44041917 0.036990583 0.10545968
0.44040483 0.038544655 0.10544085
0.44039053 0.04009873 0.10542202
0.44037619 0.041652802 0.10540318
0.4386006 0.043040287 0.10435405
0.43858624 0.044597939 0.10433517
0.4399929 0.005652261 0.10364649
0.43997854 0.0072099073 0.10362761
0.43996418 0.0087675611 0.10360874
0.43994984 0.010325215 0.10358986
0.43993548 0.011882862 0.10357099
0.43992111 0.013440516 0.10355211
0.43990678 0.014998162 0.10353323
0.43989241 0.016555816 0.10351436
0.43987805 0.018113462 0.10349548
0.44162208 0.01989137 0.10450892
0.44160777 0.02144544 0.10449009
0.44159344 0.022999519 0.10447126
0.44157913 0.02455359 0.10445242
0.4415648 0.026107667 0.10443359
0.44155049 0.027661739 0.10441476
0.44153616 0.029215809 0.10439593
0.44152185 0.030769886 0.10437709
0.44414544 0.032611415 0.10590718
0.44413117 0.034160122 0.10588841
0.44147888 0.035432108 0.10432059
0.44146457 0.036986183 0.10430176
0.44145024 0.038540255 0.10428293
0.4414359 0.040094335 0.1042641
0.4414216 0.041648403 0.10424526
0.44140726 0.043202478 0.10422643
0.43963403 0.044593532 0.10317458
0.43961969 0.04615118 0.1031557
0.43960533 0.047708832 0.10313683
0.4375582 0.0020133487 0.10045469
0.43929943 0.0038341768 0.10147028
0.44104069 0.0056478521 0.1024859
0.44102633 0.0072054984 0.10246703
0.441012 0.0087631522 0.10244815
0.44099763 0.010320806 0.10242928
0.44098327 0.011878453 0.1024104
0.44096893 0.013436107 0.10239152
0.44095457 0.014993753 0.10237265
0.4409402 0.016551407 0.10235377
0.44092587 0.018109053 0.10233489
0.44266748 0.019886971 0.10335099
0.44265318 0.021441042 0.10333215
0.44263884 0.02299512 0.10331333
0.44262454 0.02454919 0.10329449
0.4426102 0.026103269 0.10327566
0.4425959 0.027657339 0.10325683
0.44258156 0.029211409 0.10323799
0.44256726 0.030765489 0.10321916
0.44518724 0.03260703 0.10475326
0.44517297 0.034155738 0.1047345
0.44252428 0.035427708 0.10316266
0.44250998 0.036981784 0.10314383
0.44249564 0.038535856 0.10312499
0.44248131 0.040089935 0.10310616
0.442467 0.041644003 0.10308733
0.44245267 0.043198079 0.10306849
0.44068184 0.044589121 0.102014
0.44066748 0.046146773 0.10199512
0.44065315 0.047704421 0.10197624
0.4388822 0.049109772 0.10092161
0.43862525 0.00044411398 0.099307738
0.44036403 0.0022685353 0.10032595
0.44034964 0.0038297577 0.10030703
0.44208848 0.0056434432 0.10132532
0.44207415 0.0072010895 0.10130644
0.44205979 0.0087587433 0.10128757
0.44204542 0.010316397 0.10126869
0.44203109 0.011874044 0.10124981
0.44201672 0.013431698 0.10123093
0.44200239 0.014989344 0.10121205
0.44198802 0.016546998 0.10119318
0.44197366 0.018104644 0.1011743
0.44195932 0.019662298 0.10115543
0.44369859 0.021436643 0.10217424
0.44368425 0.02299072 0.1021554
0.44366992 0.024544792 0.10213657
0.44365561 0.02609887 0.10211774
0.44364128 0.02765294 0.1020989
0.44362697 0.029207012 0.10208007
0.44361264 0.030761089 0.10206123
0.44359833 0.032315161 0.10204241
0.443584 0.033869237 0.10202357
0.44356969 0.035423309 0.10200474
0.44355536 0.036977388 0.1019859
0.44354105 0.038531456 0.10196707
0.44352672 0.040085535 0.10194824
0.44351241 0.041639607 0.1019294
0.44349808 0.043193679 0.10191058
0.44172964 0.044584714 0.10085341
0.4417153 0.046142362 0.10083453
0.44170094 0.047700014 0.10081565
0.43993241 0.04910535 0.099758357
0.43706623 -0.0015252858 0.096601218
0.43967786 0.0004396849 0.098141819
0.43966344 0.0020044905 0.09812285
0.44139984 0.0038253388 0.099143773
0.4431363 0.0056390343 0.10016473
0.44312194 0.0071966806 0.10014585
0.44310758 0.0087543344 0.10012697
0.44309324 0.010311989 0.1001081
0.44307888 0.011869635 0.10008922
0.44306454 0.013427289 0.10007035
0.44305018 0.014984936 0.10005147
0.44303581 0.016542589 0.10003259
0.44302148 0.018100236 0.10001372
0.44300711 0.019657889 0.099994838
0.44474396 0.021432245 0.10101631
0.44472966 0.022986323 0.10099748
0.44471532 0.024540393 0.10097865
0.44470102 0.026094472 0.10095982
0.44468668 0.027648542 0.10094098
0.44467235 0.029202612 0.10092214
0.44465804 0.030756691 0.10090332
0.44464371 0.032310762 0.10088448
0.4446294 0.033864841 0.10086565
0.44461507 0.035418909 0.10084681
0.44460076 0.036972988 0.10082798
0.44458643 0.03852706 0.10080915
0.44457212 0.040081136 0.10079031
0.44455779 0.041635208 0.10077149
0.44454348 0.043189283 0.10075265
0.44277745 0.044580303 0.099692822
0.44276309 0.046137955 0.099673942
0.44274873 0.047695603 0.099655062
0.44098261 0.049100932 0.098595098
0.43289205 -0.003910997 0.092323266
0.43812245 -0.00152973 0.095431298
0.44073045 0.00043525579 0.0969759
0.44071606 0.0020000616 0.096956931
0.44245005 0.0038209199 0.097980522
0.44418409 0.0056346254 0.099004142
0.44416976 0.0071922718 0.098985262
0.4441554 0.0087499255 0.09896639
0.44414103 0.01030758 0.09894751
0.4441267 0.011865227 0.098928638
0.44411233 0.01342288 0.098909758
0.44409797 0.014980527 0.098890886
0.44408363 0.01653818 0.098872006
0.44406927 0.018095827 0.098853126
0.4440549 0.01965348 0.098834254
0.44578937 0.021427846 0.099858388
0.44577503 0.022981923 0.099839561
0.44576073 0.024535995 0.099820726
0.44574639 0.026090072 0.099801891
0.44573209 0.027644143 0.099783055
0.44571775 0.029198214 0.099764228
0.44570345 0.030752292 0.099745393
0.44568911 0.032306362 0.099726558
0.44567481 0.033860441 0.09970773
0.44566047 0.035414509 0.099688895
0.44564614 0.036968589 0.09967006
0.44563183 0.038522661 0.099651225
0.4456175 0.040076736 0.099632397
0.44560319 0.041630808 0.099613562
0.44558886 0.043184884 0.099594727
0.44382524 0.044575896 0.09853223
0.44381088 0.046133544 0.098513357
0.44204721 0.047535289 0.097450763
0.44203284 0.049096514 0.097431846
0.44026902 0.05050898 0.09636908
0.43135133 -0.005907299 0.089597091
0.43744725 -0.0033747174 0.093235388
0.43917868 -0.0015341743 0.094261386
0.43916419 3.5995126e-05 0.094242357
0.44176868 0.0019956324 0.095791012
0.44350025 0.0038165008 0.09681727
0.44523191 0.0056302166 0.09784355
0.44521755 0.0071878629 0.097824678
0.44520319 0.0087455167 0.097805798
0.44518885 0.010303171 0.097786926
0.44517449 0.011860818 0.097768046
0.44516012 0.013418471 0.097749174
0.44514579 0.014976118 0.097730294
0.44513142 0.016533772 0.097711422
0.44511706 0.018091418 0.097692542
0.44510272 0.019649072 0.097673662
0.44683474 0.021423448 0.098700471
0.44682044 0.022977525 0.098681636
0.4468061 0.024531595 0.098662801
0.4467918 0.026085673 0.098643966
0.44677746 0.027639745 0.098625138
0.44676316 0.029193815 0.098606303
0.44674882 0.030747892 0.098587468
0.44673452 0.032301962 0.098568641
0.44672018 0.033856042 0.098549806
0.44670588 0.035410114 0.098530971
0.44669154 0.036964189 0.098512135
0.44667724 0.038518261 0.098493308
0.4466629 0.040072341 0.098474473
0.44664857 0.041626409 0.098455638
0.4448874 0.043013833 0.097390518
0.44487303 0.044571485 0.097371645
0.4448587 0.046129137 0.097352766
0.44309741 0.047530867 0.096287511
0.44308305 0.049092095 0.096268594
0.44132164 0.050504554 0.095203161
0.43243298 -0.0074980496 0.088434398
0.43677694 -0.0052268836 0.091034271
0.43850586 -0.0033791719 0.092062794
0.4402349 -0.0015386187 0.093091466
0.44022042 3.1550822e-05 0.093072437
0.44282126 0.0019912033 0.094625093
0.44455048 0.0038120819 0.095654011
0.44453609 0.0053733117 0.095635094
0.44626537 0.007183454 0.096664079
0.446251 0.0087411078 0.096645199
0.44623664 0.010298762 0.096626326
0.44622231 0.011856409 0.096607447
0.44620794 0.013414063 0.096588574
0.44619358 0.014971709 0.096569695
0.44617924 0.016529363 0.096550822
0.44616488 0.018087009 0.096531942
0.44615051 0.019644663 0.09651307
0.44788015 0.021419048 0.097542532
0.44786584 0.022973126 0.097523704
0.44785151 0.024527198 0.097504869
0.4478372 0.026081275 0.097486034
0.44782287 0.027635345 0.097467206
0.44780856 0.029189417 0.097448371
0.44779423 0.030743495 0.097429536
0.44777992 0.032297567 0.097410701
0.44776559 0.033851642 0.097391874
0.44600698 0.035221174 0.096324302
0.44599262 0.036778819 0.096305422
0.44597828 0.038336474 0.09628655
0.44596392 0.039894119 0.09626767
0.44594955 0.041451775 0.096248798
0.44593522 0.043009423 0.096229918
0.44592085 0.044567078 0.096211046
0.44416201 0.045965221 0.095143177
0.44414765 0.047526449 0.09512426
0.44238868 0.04893532 0.094056204
0.44237426 0.050500125 0.094037242
0.44235983 0.052064929 0.094018281
0.43351465 -0.0090888077 0.08727172
0.43611151 -0.0070862146 0.088827841
0.43957901 -0.0049573714 0.090909287
0.4395645 -0.0033836262 0.090890221
0.44129112 -0.0015430629 0.091921553
0.44127664 2.7106556e-05 0.091902524
0.44387388 0.0019867742 0.093459174
0.44560069 0.0038076628 0.094490752
0.44558629 0.0053688926 0.094471827
0.44731316 0.0071790456 0.095503487
0.44729879 0.0087366989 0.095484614
0.44728446 0.010294354 0.095465735
0.4472701 0.011852 0.095446862
0.44725573 0.013409654 0.095427983
0.4472414 0.0149673 0.09540911
0.44722703 0.016524954 0.09539023
0.4472127 0.0180826 0.095371358
0.44719833 0.019640254 0.095352478
0.44718397 0.021197908 0.095333599
0.44716963 0.022755556 0.095314726
0.44715527 0.02431321 0.095295846
0.4471409 0.025870856 0.095276974
0.44886827 0.027630948 0.096309282
0.44885394 0.029185018 0.096290447
0.44883963 0.030739095 0.096271612
0.4488253 0.032293167 0.096252784
0.44706914 0.033659112 0.09518259
0.44705477 0.035216764 0.095163718
0.44704044 0.036774412 0.095144838
0.44702607 0.038332064 0.095125958
0.44701171 0.039889712 0.095107086
0.44699737 0.041447364 0.095088206
0.44698301 0.043005016 0.095069334
0.44696867 0.044562668 0.095050454
0.44521224 0.045960799 0.093979917
0.4434557 0.047366086 0.092909247
0.4434413 0.048930891 0.092890285
0.44342688 0.050495695 0.092871323
0.44341245 0.0520605 0.092852362
0.44078469 0.053412858 0.091255568
0.4345817 -0.0090932976 0.086089805
0.43717495 -0.0070906896 0.087649934
0.44063762 -0.0049618259 0.089736715
0.44062313 -0.0033880807 0.089717641
0.44234735 -0.0015475072 0.090751626
0.44233286 2.2662251e-05 0.090732604
0.4449265 0.001982345 0.092293255
0.44491208 0.0035471506 0.092274293
0.44663653 0.0053644734 0.093308575
0.44662213 0.0069257035 0.093289658
0.44834661 0.0087322909 0.094324023
0.44833225 0.010289945 0.09430515
0.44831789 0.011847591 0.09428627
0.44830355 0.013405245 0.094267398
0.44828919 0.014962891 0.094248518
0.44827485 0.016520545 0.094229646
0.44826049 0.018078191 0.094210766
0.44824612 0.019635845 0.094191894
0.44823179 0.021193499 0.094173014
0.44821742 0.022751147 0.094154134
0.44820306 0.024308801 0.094135262
0.44818872 0.025866447 0.094116382
0.44817436 0.027424101 0.09409751
0.44815999 0.028981747 0.09407863
0.44814566 0.030539401 0.094059758
0.44813129 0.032097049 0.094040878
0.44811693 0.033654701 0.094022006
0.44810259 0.035212357 0.094003126
0.44808823 0.036770001 0.093984254
0.44807389 0.038327657 0.093965374
0.44805953 0.039885301 0.093946494
0.44804516 0.041442957 0.093927622
0.44803083 0.043000605 0.093908742
0.44627684 0.04439516 0.092835583
0.44626245 0.045956381 0.092816658
0.44450831 0.047361657 0.091743328
0.44449389 0.048926461 0.091724366
0.4444795 0.050491266 0.091705404
0.44185537 0.051838245 0.090104677
0.44184092 0.053408414 0.090085648
0.44008654 0.054840513 0.089011997
0.43566337 -0.010684048 0.084927119
0.43825296 -0.0086760689 0.086491182
0.43997458 -0.0068175984 0.08752764
0.44169626 -0.0049662804 0.088564128
0.44168177 -0.003392535 0.088545054
0.44340357 -0.0015519515 0.089581721
0.44338909 1.8217987e-05 0.089562692
0.44337463 0.0015883874 0.089543663
0.44596469 0.0035427217 0.091108374
0.44768673 0.0053600548 0.092145324
0.44767234 0.0069212844 0.092126399
0.44765794 0.0084825065 0.092107482
0.44764355 0.010043737 0.092088565
0.44762918 0.011604967 0.092069641
0.44761479 0.013166197 0.092050724
0.44933701 0.014958482 0.093087934
0.447586 0.016288649 0.092012882
0.44930828 0.018073782 0.093050182
0.44929394 0.019631436 0.093031302
0.44927958 0.021189092 0.09301243
0.44926521 0.022746738 0.09299355
0.44925088 0.024304392 0.09297467
0.44923651 0.025862038 0.092955798
0.44922215 0.027419692 0.092936918
0.44920781 0.028977338 0.092918046
0.44919345 0.030534992 0.092899166
0.44917908 0.032092638 0.092880294
0.44916475 0.033650294 0.092861414
0.44915038 0.035207946 0.092842542
0.44913605 0.036765594 0.092823662
0.44912168 0.038323246 0.09280479
0.44910732 0.039880894 0.09278591
0.44909298 0.041438546 0.09276703
0.44734144 0.042829514 0.091691248
0.44732705 0.044390742 0.091672331
0.44557536 0.045792427 0.09059637
0.44556093 0.047357228 0.090577409
0.44554651 0.048922032 0.090558447
0.44553211 0.050486837 0.090539485
0.4429116 0.051833801 0.088934764
0.44289714 0.05340397 0.088915735
0.44288266 0.054974139 0.088896707
0.43673041 -0.010688538 0.083745219
0.43931639 -0.0086805429 0.085313275
0.44103563 -0.0068220627 0.086352386
0.44275489 -0.0049707349 0.087391548
0.44274038 -0.0033969895 0.087372474
0.4427259 -0.0018232442 0.087353408
0.44444531 1.3773722e-05 0.088392779
0.44443086 0.0015839431 0.08837375
0.44701731 0.0035382926 0.089942455
0.44700289 0.0051030908 0.089923494
0.44872254 0.0069168657 0.090963148
0.44870815 0.0084780883 0.090944231
0.44869378 0.010039317 0.090925306
0.44867939 0.011600547 0.090906389
0.44866499 0.013161778 0.090887472
0.4486506 0.014723 0.090868548
0.44863623 0.016284229 0.090849631
0.44862184 0.017845459 0.090830714
0.44860744 0.019406682 0.090811789
0.44859305 0.020967912 0.090792872
0.44857869 0.022529142 0.090773948
0.45029867 0.024299983 0.091814086
0.4502843 0.025857629 0.091795206
0.45026997 0.027415283 0.091776334
0.4502556 0.028972929 0.091757454
0.45024127 0.030530583 0.091738582
0.4502269 0.032088231 0.091719702
0.44847795 0.033457726 0.090641513
0.44846359 0.035018958 0.090622596
0.44844919 0.036580186 0.090603672
0.4484348 0.038141411 0.090584755
0.44842041 0.039702639 0.09056583
0.44840604 0.041263867 0.090546913
0.44839165 0.042825095 0.090527996
0.44837725 0.04438632 0.090509072
0.44662797 0.045787998 0.089430451
0.44661355 0.047352798 0.08941149
0.44659913 0.048917606 0.089392528
0.4465847 0.050482407 0.089373566
0.44657031 0.052047212 0.089354604
0.44395337 0.053399526 0.087745823
0.44393888 0.054969694 0.087726794
0.44392443 0.056539863 0.087707765
0.44040897 -0.011846812 0.084173672
0.4403944 -0.010265915 0.084154516
0.44211119 -0.0084038489 0.085196264
0.44209665 -0.0068265274 0.085177146
0.44381353 -0.0049751895 0.086218961
0.44379902 -0.0034014438 0.086199887
0.44378453 -0.0018276986 0.086180814
0.44550154 9.3294157e-06 0.087222852
0.44548708 0.0015794989 0.087203823
0.4454726 0.0031496685 0.087184802
0.44805551 0.0050986619 0.088757575
0.44804108 0.0066634673 0.088738613
0.44802666 0.0082282731 0.088719651
0.44801226 0.0097930785 0.088700689
0.44799784 0.011357884 0.08868172
0.44798341 0.012922683 0.088662758
0.4497008 0.014718581 0.089705296
0.44795457 0.016052295 0.088624835
0.44967204 0.017841041 0.089667454
0.44965765 0.019402262 0.089648537
0.44964325 0.020963492 0.08962962
0.44962889 0.022524722 0.089610696
0.4496145 0.024085945 0.089591779
0.4496001 0.025647175 0.089572862
0.44958571 0.027208405 0.089553937
0.44957134 0.028769627 0.08953502
0.44955695 0.030330857 0.089516096
0.44954255 0.031892087 0.089497179
0.44952816 0.033453308 0.089478262
0.44951379 0.03501454 0.089459337
0.4494994 0.036575768 0.08944042
0.449485 0.038136989 0.089421503
0.44947061 0.039698221 0.089402579
0.44945624 0.041259445 0.089383662
0.44944185 0.042820677 0.089364737
0.44769502 0.044218767 0.088283502
0.44768059 0.045783568 0.088264532
0.44766617 0.047348369 0.088245571
0.44765174 0.048913177 0.088226609
0.44763732 0.050477978 0.088207647
0.4476229 0.052042782 0.088188685
0.4476085 0.05360759 0.088169716
0.44499511 0.05496525 0.086556874
0.44498065 0.056535419 0.086537845
0.44147241 -0.011851287 0.082995765
0.44145787 -0.01027039 0.082976609
0.44317225 -0.0084083127 0.084021017
0.4431577 -0.0068309917 0.084001906
0.44487214 -0.0049796435 0.085046381
0.44485766 -0.0034058983 0.085027307
0.44484314 -0.0018321529 0.085008241
0.44482863 -0.00025840764 0.084989168
0.44481415 0.0013153377 0.084970094
0.44652882 0.0031452242 0.086014889
0.44651437 0.0047153938 0.08599586
0.44649988 0.0062855631 0.085976832
0.44907928 0.0082238438 0.087553732
0.44906485 0.0097886492 0.08753477
0.44905046 0.011353455 0.087515801
0.44903603 0.012918253 0.087496839
0.44902161 0.014483059 0.087477878
0.44900718 0.016047865 0.087458916
0.44899276 0.01761267 0.087439954
0.44897833 0.019177468 0.087420985
0.44896391 0.020742275 0.087402023
0.44894952 0.022307079 0.087383062
0.44893509 0.023871886 0.0873641
0.44892067 0.025436692 0.087345138
0.44890624 0.027001489 0.087326176
0.44889182 0.028566295 0.087307207
0.44887739 0.030131102 0.087288246
0.44886297 0.031695906 0.087269284
0.44884858 0.033260711 0.087250322
0.44883415 0.034825511 0.08723136
0.44881973 0.036390316 0.087212391
0.4488053 0.03795512 0.087193429
0.44879088 0.039519928 0.087174468
0.44877645 0.041084729 0.087155506
0.44876203 0.042649534 0.087136544
0.44874763 0.044214338 0.087117583
0.44873321 0.045779139 0.087098613
0.44871879 0.04734394 0.087079652
0.44870436 0.048908748 0.08706069
0.44868994 0.050473548 0.087041728
0.44867551 0.052038353 0.087022766
0.44606581 0.053390637 0.08540599
0.44605133 0.054960806 0.085386962
0.44603688 0.056530975 0.085367933
0.44429204 0.057970189 0.084283523
0.44253585 -0.011855762 0.081817858
0.4425213 -0.010274864 0.081798695
0.44423327 -0.0084127774 0.082845762
0.44421872 -0.0068354565 0.082826652
0.44420421 -0.005258135 0.082807533
0.44591627 -0.0034103526 0.083854735
0.44590178 -0.0018366073 0.083835661
0.44588727 -0.00026286204 0.083816588
0.44587275 0.0013108833 0.083797522
0.44585827 0.0028846287 0.083778448
0.44757059 0.004710949 0.084825933
0.44755611 0.0062811188 0.084806904
0.44754165 0.0078512877 0.084787883
0.44752717 0.0094214575 0.084768854
0.44751272 0.010991627 0.084749825
0.44749823 0.012561796 0.084730797
0.44748378 0.014131966 0.084711768
0.44746929 0.015702128 0.084692739
0.44745484 0.017272297 0.08467371
0.44744036 0.018842466 0.084654681
0.45001653 0.020737845 0.086236104
0.4500021 0.022302652 0.086217143
0.44998771 0.023867456 0.086198181
0.44997329 0.025432263 0.086179219
0.44995886 0.02699706 0.086160257
0.44994444 0.028561866 0.086141288
0.44993001 0.030126672 0.086122327
0.44991559 0.031691477 0.086103365
0.44990116 0.033256285 0.086084403
0.44988677 0.034821082 0.086065441
0.44987234 0.036385886 0.086046472
0.44985792 0.037950695 0.08602751
0.4498435 0.039515499 0.086008549
0.44982907 0.0410803 0.085989587
0.44981465 0.042645104 0.085970625
0.44720885 0.043965176 0.084350236
0.44719437 0.045535345 0.084331207
0.44717991 0.047105514 0.084312178
0.44716543 0.048675682 0.084293149
0.44715098 0.050245851 0.084274121
0.44713649 0.05181602 0.084255092
0.44712204 0.053386193 0.084236063
0.44710755 0.054956362 0.084217034
0.4470931 0.056526531 0.084198005
0.44535068 0.057965733 0.083110943
0.44359931 -0.011860236 0.080639936
0.44358474 -0.010279339 0.080620781
0.44357017 -0.008698442 0.080601618
0.44527978 -0.0068399208 0.081651405
0.44526523 -0.0052625998 0.081632294
0.44525069 -0.0036852784 0.081613176
0.44696042 -0.0018410619 0.082663074
0.44694591 -0.00026731647 0.082644001
0.44693139 0.0013064288 0.082624927
0.44691691 0.0028801742 0.082605861
0.44690239 0.0044539194 0.082586788
0.44688791 0.006027665 0.082567714
0.4468734 0.0076014102 0.082548648
0.44858339 0.0094170133 0.083598942
0.44856894 0.010987183 0.083579913
0.44855446 0.012557352 0.083560884
0.44854 0.014127522 0.083541855
0.44852552 0.015697684 0.083522826
0.44851106 0.017267853 0.083503798
0.44849658 0.018838022 0.083484769
0.44848213 0.020408193 0.08346574
0.44846764 0.021978362 0.083446711
0.44845319 0.02354853 0.08342769
0.4484387 0.025118701 0.083408661
0.44842422 0.02668887 0.083389632
0.44840977 0.028259039 0.083370604
0.44839528 0.02982921 0.083351575
0.44838083 0.031399377 0.083332546
0.44836634 0.032969549 0.083313517
0.44835189 0.034539718 0.083294488
0.44833741 0.036109887 0.08327546
0.44832295 0.037680056 0.083256431
0.44830847 0.039250225 0.083237402
0.44829401 0.040820394 0.083218381
0.44827953 0.042390563 0.083199352
0.44826508 0.043960731 0.083180323
0.44825059 0.0455309 0.083161294
0.44823614 0.047101069 0.083142266
0.44822165 0.048671238 0.083123237
0.4482072 0.050241407 0.083104208
0.44819272 0.05181158 0.083085179
0.44817826 0.053381748 0.083066151
0.44643831 0.054813784 0.081976503
0.44642383 0.056387529 0.08195743
0.44468382 0.057830304 0.0808677
0.44035545 0.059089132 0.07817176
0.43861523 0.060551573 0.07708174
0.43860057 0.062141418 0.077062473
0.44466275 -0.011864711 0.079462029
0.44464818 -0.010283814 0.079442874
0.4446336 -0.0087029161 0.079423711
0.44461903 -0.0071220119 0.079404555
0.44632629 -0.0052670641 0.080457039
0.44631174 -0.0036897431 0.080437921
0.4462972 -0.0021124145 0.08041881
0.44628268 -0.00053509319 0.080399692
0.44626814 0.0010422281 0.080380581
0.4462536 0.0026195492 0.080361463
0.44623905 0.0041968706 0.080342345
0.44622454 0.005774199 0.080323234
0.44621 0.0073515205 0.080304116
0.44791752 0.0091707008 0.081356995
0.44790301 0.010744447 0.081337921
0.44788852 0.012318192 0.081318855
0.44787401 0.013891937 0.081299782
0.4478595 0.01546569 0.081280708
0.44784501 0.017039435 0.081261642
0.4478305 0.01861318 0.081242569
0.44781601 0.020186925 0.081223495
0.4478015 0.02176067 0.081204422
0.44778699 0.023334416 0.081185356
0.4477725 0.024908163 0.081166282
0.44775799 0.026481908 0.081147209
0.44774348 0.028055653 0.081128135
0.44772899 0.029629398 0.081109069
0.44771448 0.031203143 0.081089996
0.4494226 0.032965105 0.082143597
0.44940811 0.034535274 0.082124569
0.44767097 0.035924379 0.081032783
0.44765648 0.037498124 0.081013709
0.44764197 0.039071877 0.080994636
0.44762745 0.040645618 0.08097557
0.44761297 0.042219363 0.080956496
0.44759846 0.043793108 0.080937423
0.44758397 0.045366857 0.080918349
0.44756946 0.046940602 0.080899283
0.44755495 0.048514348 0.08088021
0.44926342 0.050236963 0.081934288
0.44924894 0.051807132 0.081915259
0.44751143 0.053235587 0.080822997
0.44749695 0.054809332 0.080803923
0.44748244 0.056383077 0.08078485
0.44574487 0.057825841 0.079692446
0.44400716 0.05927575 0.078599915
0.44140789 0.060670909 0.076970622
0.43967003 0.062136918 0.075877905
0.43965539 0.06372676 0.075858638
0.44314736 -0.012301738 0.076672979
0.44571161 -0.010288288 0.078264959
0.44569704 -0.0087073911 0.078245804
0.44310349 -0.0075429478 0.076615311
0.44308889 -0.005956687 0.076596089
0.44565335 -0.0039646924 0.07818833
0.44563878 -0.0023837956 0.078169174
0.4456242 -0.00080289098 0.078150012
0.44560963 0.0007780061 0.078130856
0.44559509 0.0023589032 0.078111693
0.44558051 0.0039398074 0.078092538
0.44556594 0.0055207047 0.078073382
0.44727102 0.0073470557 0.079128876
0.44725651 0.0089243772 0.079109758
0.44724196 0.010501699 0.079090647
0.44722742 0.012079019 0.079071529
0.44721287 0.013656341 0.079052418
0.44719836 0.015233669 0.0790333
0.44718382 0.016810991 0.07901419
0.44716927 0.018388312 0.078995071
0.44887462 0.020182472 0.080050915
0.44886011 0.021756217 0.080031849
0.44884562 0.023329962 0.080012776
0.44883111 0.024903707 0.079993702
0.44881663 0.026477452 0.079974629
0.44880211 0.028051198 0.079955563
0.4487876 0.029624943 0.079936489
0.44877312 0.031198688 0.079917416
0.4487586 0.032772433 0.07989835
0.44874412 0.034346178 0.079879276
0.4487296 0.035919923 0.079860203
0.44871509 0.037493668 0.079841129
0.44870061 0.039067421 0.079822063
0.44868609 0.040641166 0.07980299
0.44867158 0.042214911 0.079783916
0.4486571 0.043788657 0.079764843
0.44864258 0.045362405 0.079745777
0.4486281 0.046936151 0.079726703
0.44861358 0.048509896 0.07970763
0.44859907 0.050083641 0.079688564
0.44858459 0.051657386 0.07966949
0.44857007 0.053231131 0.079650417
0.44855556 0.054804876 0.079631343
0.44682044 0.056244049 0.078536317
0.44508517 0.057690378 0.077441163
0.44507062 0.059271276 0.077422
0.44247493 0.06066642 0.075788714
0.44246033 0.062252682 0.075769491
0.44072485 0.06372226 0.074674062
0.44071019 0.065312095 0.074654795
0.4442144 -0.012306227 0.075491078
0.44419977 -0.010719967 0.075471856
0.44418517 -0.0091337059 0.075452633
0.44417053 -0.0075474377 0.075433411
0.44415593 -0.0059611769 0.075414188
0.4441413 -0.0043749087 0.075394958
0.4441267 -0.0027886478 0.075375736
0.44411206 -0.0012023795 0.075356513
0.44409746 0.00038388144 0.075337291
0.44408283 0.0019701498 0.075318068
0.44406822 0.0035564105 0.075298846
0.44405359 0.005142679 0.075279623
0.4466148 0.0070971269 0.076876312
0.44660023 0.0086780312 0.076857157
0.44830298 0.010497234 0.0779154
0.44828844 0.012074555 0.07789629
0.44827393 0.013651876 0.077877171
0.44825938 0.015229205 0.077858061
0.44824484 0.016806526 0.077838942
0.44823033 0.018383848 0.077819832
0.44821578 0.019961169 0.077800713
0.44820124 0.021538489 0.077781603
0.4481867 0.02311581 0.077762485
0.44817218 0.024693139 0.077743374
0.44815764 0.02627046 0.077724256
0.44814309 0.027847782 0.077705137
0.44812855 0.029425103 0.077686027
0.44811404 0.031002425 0.077666909
0.44809949 0.032579754 0.077647798
0.44980273 0.034341726 0.078706689
0.44978824 0.035915472 0.078687616
0.44977373 0.037489217 0.078668542
0.44975924 0.039062969 0.078649476
0.44974473 0.040636711 0.078630403
0.44973022 0.042210456 0.078611329
0.44971573 0.043784201 0.078592256
0.44970122 0.04535795 0.07857319
0.44968671 0.046931695 0.078554116
0.44967222 0.04850544 0.078535043
0.44965771 0.050079186 0.078515969
0.44964322 0.051652931 0.078496903
0.44962871 0.053226676 0.07847783
0.447896 0.054662265 0.077380188
0.44788146 0.056239586 0.077361077
0.4461486 0.057685904 0.076263249
0.44613406 0.059266802 0.076244093
0.44354197 0.060661927 0.074606813
0.44352737 0.062248193 0.074587591
0.44351274 0.063834459 0.074568368
0.44349813 0.065420724 0.074549139
0.44356698 -0.012599102 0.073229708
0.44526684 -0.010724457 0.07428994
0.44525221 -0.0091381958 0.074270718
0.44352305 -0.0078295842 0.073171914
0.44350839 -0.0062397402 0.073152646
0.44520837 -0.0043793987 0.07421305
0.44519374 -0.0027931377 0.074193828
0.44517913 -0.0012068693 0.074174605
0.4451645 0.00037939157 0.074155383
0.4451499 0.0019656599 0.074136153
0.44513527 0.0035519206 0.07411693
0.44512066 0.0051381891 0.074097708
0.44510603 0.0067244498 0.074078485
0.44509143 0.008310711 0.074059263
0.44764912 0.010254454 0.07566008
0.44763455 0.011835351 0.075640917
0.44761997 0.013416248 0.075621761
0.4476054 0.014997153 0.075602606
0.44759086 0.01657805 0.075583443
0.44757628 0.018158946 0.075564288
0.44756171 0.019739851 0.075545132
0.44754714 0.021320749 0.075525969
0.44753256 0.022901645 0.075506814
0.44751799 0.024482543 0.075487651
0.44750345 0.026063448 0.075468495
0.44748887 0.027644344 0.07544934
0.4474743 0.029225241 0.075430177
0.44745973 0.030806145 0.075411022
0.44744515 0.032387044 0.075391866
0.44743058 0.033967938 0.075372703
0.44913146 0.03572993 0.076434314
0.44911695 0.037307251 0.076415196
0.4491024 0.038884573 0.076396085
0.44908786 0.040461898 0.076376967
0.44907331 0.042039219 0.076357856
0.4490588 0.043616544 0.076338738
0.44904426 0.045193866 0.076319627
0.44902971 0.046771187 0.076300509
0.44901517 0.048348513 0.076281391
0.44900066 0.049925834 0.07626228
0.44898611 0.051503155 0.076243162
0.44897157 0.053080477 0.076224051
0.44895706 0.054657798 0.076204933
0.44894251 0.05623512 0.076185822
0.44721207 0.05768143 0.075085334
0.44462365 0.059071172 0.073444121
0.44460905 0.060657438 0.073424898
0.44459441 0.062243704 0.073405676
0.44457981 0.063829966 0.073386453
0.44456518 0.065416232 0.073367231
0.44455057 0.06700249 0.073348008
0.44463646 -0.012603602 0.072045133
0.4446218 -0.011013766 0.072025865
0.44460714 -0.0094239209 0.072006598
0.44459251 -0.0078340843 0.071987331
0.44457784 -0.0062442403 0.071968064
0.44456321 -0.0046544038 0.071948804
0.44454855 -0.0030645595 0.071929537
0.44453388 -0.0014747153 0.07191027
0.44451925 0.00011512139 0.071891002
0.44450459 0.0017049656 0.071871735
0.44448996 0.0032948023 0.071852468
0.4461877 0.0051336992 0.0729158
0.4461731 0.0067199599 0.072896577
0.44615847 0.0083062211 0.072877355
0.44871256 0.01024998 0.074482173
0.44869798 0.011830877 0.07446301
0.44868341 0.013411773 0.074443854
0.44866884 0.014992678 0.074424691
0.44608539 0.016237548 0.072781235
0.44607076 0.017823808 0.072762012
0.44605616 0.019410077 0.07274279
0.44861057 0.021316273 0.074348062
0.448596 0.022897171 0.074328907
0.44858143 0.024478069 0.074309744
0.44856688 0.026058972 0.074290588
0.44855231 0.02763987 0.074271433
0.44853774 0.029220767 0.07425227
0.44852316 0.030801671 0.074233115
0.44850859 0.032382566 0.074213952
0.44849402 0.033963464 0.074194796
0.44847947 0.035544362 0.074175641
0.4484649 0.037125267 0.074156478
0.44845033 0.038706165 0.074137323
0.44843575 0.040287063 0.074118167
0.44842118 0.04186796 0.074099004
0.44840661 0.043448862 0.074079849
0.44839206 0.045029759 0.074060693
0.44837749 0.046610661 0.07404153
0.44836292 0.048191559 0.074022375
0.44834834 0.049772456 0.074003212
0.44833377 0.051353358 0.073984057
0.4483192 0.052934255 0.073964901
0.44830465 0.054515157 0.073945738
0.44829008 0.056096055 0.073926583
0.44570532 0.057480421 0.072281435
0.44569069 0.059066683 0.072262213
0.44567609 0.060652949 0.07224299
0.44566146 0.062239211 0.072223768
0.44564685 0.063825481 0.072204538
0.44563222 0.065411739 0.072185315
0.44561762 0.066998005 0.072166093
0.444011 -0.014489934 0.069795109
0.44570592 -0.012608103 0.070860557
0.44569126 -0.011018265 0.07084129
0.44396695 -0.0097096814 0.069737181
0.44395226 -0.0081162611 0.069717869
0.44393757 -0.0065228483 0.069698557
0.44563267 -0.0046589035 0.070764221
0.445618 -0.0030690595 0.070744954
0.44560334 -0.0014792153 0.070725687
0.44558871 0.00011062142 0.07070642
0.44557405 0.0017004656 0.07068716
0.44555941 0.0032903024 0.070667893
0.44554475 0.0048801466 0.070648625
0.44553009 0.0064699831 0.070629358
0.44722554 0.0083017312 0.07169544
0.44721091 0.0098879989 0.071676217
0.4471963 0.01147426 0.071656995
0.44718167 0.013060529 0.071637772
0.44716707 0.014646789 0.07161855
0.44715244 0.016233057 0.071599327
0.44713783 0.017819319 0.071580097
0.4471232 0.019405587 0.071560875
0.4471086 0.020991847 0.071541652
0.44709396 0.022578117 0.07152243
0.44707936 0.024164377 0.071503207
0.44706473 0.025750637 0.071483985
0.44705012 0.027336907 0.071464762
0.44703549 0.028923167 0.07144554
0.44702089 0.030509435 0.071426317
0.44700626 0.032095697 0.071407095
0.44699165 0.033681963 0.071387872
0.44697702 0.035268225 0.071368642
0.44696242 0.036854494 0.07134942
0.44694778 0.038440753 0.071330197
0.44693318 0.040027022 0.071310975
0.44948462 0.041863486 0.072921097
0.44947007 0.043444388 0.072901942
0.4494555 0.045025285 0.072882779
0.44944093 0.046606187 0.072863623
0.44942635 0.048187081 0.072844468
0.44941178 0.049767982 0.072825305
0.44683084 0.051130872 0.071176417
0.44681624 0.052717134 0.071157187
0.4468016 0.0543034 0.071137965
0.446787 0.055889666 0.071118742
0.44677237 0.057475928 0.07109952
0.44675776 0.059062194 0.071080297
0.44674313 0.06064846 0.071061075
0.44672853 0.062234722 0.071041852
0.44671389 0.063820988 0.07102263
0.44669929 0.065407254 0.071003407
0.44668466 0.066993512 0.070984185
0.44667006 0.068579778 0.070964962
0.4425368 -0.016531222 0.06699615
0.44508284 -0.014494443 0.068607874
0.44506818 -0.012901024 0.06858857
0.44505349 -0.011307611 0.068569258
0.4450388 -0.0097141908 0.068549946
0.44502413 -0.0081207706 0.068530634
0.44500944 -0.0065273582 0.06851133
0.44499475 -0.0049339384 0.068492018
0.44498006 -0.0033405183 0.068472706
0.44496539 -0.0017470983 0.068453401
0.44665816 0.00010612148 0.069521859
0.4466435 0.0016959656 0.069502592
0.44662884 0.0032858024 0.069483325
0.44661421 0.0048756464 0.069464058
0.44659954 0.0064654835 0.06944479
0.44658491 0.0080553275 0.069425523
0.44657025 0.0096451715 0.069406256
0.44826335 0.01146977 0.070475094
0.44824871 0.013056039 0.070455872
0.44823411 0.014642299 0.070436649
0.44821948 0.016228568 0.070417419
0.44820487 0.017814828 0.070398197
0.44819024 0.019401098 0.070378974
0.44817564 0.020987358 0.070359752
0.44816101 0.022573626 0.070340529
0.4481464 0.024159888 0.070321307
0.44813177 0.025746148 0.070302084
0.44811717 0.027332416 0.070282862
0.44810253 0.028918678 0.070263639
0.44808793 0.030504946 0.070244417
0.4480733 0.032091208 0.070225194
0.44805869 0.033677474 0.070205964
0.44804406 0.035263736 0.070186742
0.44802946 0.036850005 0.070167519
0.44801483 0.038436264 0.070148297
0.44800022 0.040022533 0.070129074
0.44798559 0.041608796 0.070109852
0.44797099 0.043195058 0.070090629
0.44795635 0.044781327 0.070071407
0.44794175 0.046367589 0.070052184
0.44792712 0.047953855 0.070032962
0.44791251 0.049540117 0.070013739
0.44789788 0.05112638 0.069994509
0.44788328 0.052712645 0.069975287
0.44786865 0.054298911 0.069956064
0.44785404 0.055885173 0.069936842
0.44783941 0.057471439 0.069917619
0.44782481 0.059057705 0.069898397
0.44781017 0.060643967 0.069879174
0.44779557 0.062230233 0.069859952
0.44778094 0.063816495 0.069840729
0.44776633 0.065402761 0.069821507
0.4477517 0.06698902 0.069802284
0.4477371 0.068575285 0.069783054
0.44361228 -0.016535746 0.065804914
0.44359756 -0.014936962 0.065785535
0.4435828 -0.013338178 0.065766163
0.44356808 -0.011739402 0.065746792
0.44355336 -0.010140618 0.065727413
0.44353861 -0.0085418345 0.065708041
0.44352388 -0.0069430503 0.065688662
0.44350913 -0.0053442665 0.065669291
0.44605193 -0.0033450285 0.067285463
0.44603726 -0.0017516083 0.067266151
0.44602257 -0.00015819581 0.067246847
0.44600788 0.0014352242 0.067227535
0.44599321 0.0030286442 0.067208223
0.44597852 0.0046220566 0.067188919
0.44596383 0.0062154769 0.067169607
0.44765437 0.0080508273 0.068240948
0.4476397 0.0096406713 0.068221681
0.44762507 0.011230509 0.068202414
0.44761041 0.012820353 0.068183146
0.44759575 0.014410189 0.068163879
0.44758111 0.016000034 0.068144612
0.44756645 0.017589871 0.068125345
0.44755182 0.019179715 0.068106078
0.44753715 0.020769559 0.06808681
0.44752249 0.022359395 0.068067551
0.44750786 0.023949239 0.068048283
0.4474932 0.025539076 0.068029016
0.44747856 0.02712892 0.068009749
0.4474639 0.028718757 0.067990482
0.44744924 0.030308601 0.067971215
0.4474346 0.031898439 0.067951947
0.44741994 0.033488281 0.06793268
0.44911113 0.035259247 0.069004834
0.4490965 0.036845513 0.068985611
0.4490819 0.038431775 0.068966389
0.44906726 0.040018044 0.068947166
0.44905266 0.041604303 0.068927936
0.44903803 0.043190569 0.068908714
0.44902343 0.044776838 0.068889491
0.44900879 0.0463631 0.068870269
0.44899419 0.047949366 0.068851046
0.44897956 0.049535628 0.068831824
0.44896495 0.051121891 0.068812601
0.44895032 0.052708156 0.068793379
0.44893572 0.054294422 0.068774156
0.44892108 0.055880684 0.068754934
0.44890648 0.05746695 0.068735711
0.44889185 0.059053212 0.068716481
0.44887725 0.060639478 0.068697259
0.44886261 0.062225744 0.068678036
0.44884801 0.06381201 0.068658814
0.44883338 0.065398276 0.068639591
0.44881877 0.066984534 0.068620369
0.44298542 -0.016835865 0.06352102
0.444673 -0.014941487 0.064594299
0.44465828 -0.013342704 0.064574927
0.44464356 -0.011743927 0.064555556
0.4446288 -0.010145144 0.064536177
0.44461408 -0.0085463598 0.064516805
0.44459936 -0.0069475756 0.064497426
0.44458461 -0.0053487918 0.064478055
0.44456989 -0.0037500081 0.064458676
0.44455516 -0.0021512317 0.064439304
0.44454041 -0.00055244792 0.064419925
0.44452569 0.0010463359 0.064400554
0.44451094 0.0026451198 0.064381182
0.44449621 0.0042439038 0.064361803
0.4470357 0.006210967 0.065982364
0.44702101 0.0078043868 0.065963052
0.44700634 0.0093977991 0.06594374
0.44869453 0.011226009 0.067017838
0.44867986 0.012815853 0.066998571
0.44866523 0.014405689 0.066979304
0.4469476 0.015771473 0.0658665
0.44693291 0.017364891 0.065847196
0.44691822 0.018958304 0.065827884
0.44690356 0.020551724 0.065808572
0.44688886 0.022145145 0.06578926
0.44687417 0.023738557 0.065769956
0.44685951 0.025331978 0.065750644
0.44684482 0.026925398 0.065731332
0.44683012 0.028518811 0.065712027
0.44851872 0.0303041 0.066786639
0.44850406 0.031893939 0.066767372
0.4484894 0.033483781 0.066748105
0.44847476 0.035073627 0.066728838
0.4484601 0.036663461 0.066709571
0.44844547 0.038253307 0.066690303
0.44843081 0.039843142 0.066671036
0.44841614 0.041432988 0.066651769
0.44840151 0.04302283 0.066632502
0.44838685 0.044612665 0.066613242
0.44837222 0.046202507 0.066593975
0.44835755 0.047792345 0.066574708
0.44834289 0.049382187 0.06655544
0.44832826 0.05097203 0.066536173
0.44831359 0.052561872 0.066516906
0.44829896 0.05415171 0.066497639
0.4482843 0.055741552 0.066478372
0.44826964 0.057331391 0.066459104
0.448255 0.058921233 0.066439837
0.44824034 0.060511075 0.06642057
0.44992968 0.062221255 0.067496128
0.44991505 0.063807517 0.067476906
0.44990045 0.065393783 0.067457683
0.44988582 0.066980042 0.067438453
0.44406331 -0.0168404 0.06232712
0.44404855 -0.01523804 0.062307701
0.44403377 -0.013635681 0.062288284
0.44401902 -0.012033321 0.062268864
0.44400424 -0.010430962 0.062249448
0.44398949 -0.0088286018 0.062230028
0.44567481 -0.0069521009 0.06330619
0.44566008 -0.0053533171 0.063286819
0.44564536 -0.0037545334 0.06326744
0.44563061 -0.002155757 0.063248068
0.44561589 -0.00055697316 0.063228689
0.44560117 0.0010418106 0.063209318
0.44558641 0.0026405945 0.063189946
0.44557169 0.0042393785 0.063170567
0.44555697 0.0058381623 0.063151196
0.44554222 0.007436946 0.063131817
0.44807819 0.0093932897 0.064756513
0.44806349 0.010986709 0.064737201
0.44804883 0.012580129 0.064717889
0.44803414 0.014173542 0.064698577
0.44546854 0.015430857 0.063034944
0.44545382 0.017029641 0.063015565
0.4454391 0.018628418 0.062996194
0.44542435 0.020227201 0.062976822
0.44540963 0.021825986 0.062957443
0.4453949 0.023424769 0.062938072
0.44538015 0.025023554 0.062918693
0.44536543 0.026622336 0.062899321
0.44535068 0.028221114 0.062879942
0.44533595 0.029819896 0.062860571
0.44787261 0.03170114 0.064486168
0.44785795 0.033294551 0.064466864
0.44954422 0.035069127 0.06554427
0.44952956 0.036658961 0.065525003
0.4495149 0.038248807 0.065505736
0.44950026 0.039838646 0.065486468
0.4494856 0.041428488 0.065467201
0.44947097 0.04301833 0.065447941
0.4494563 0.044608165 0.065428674
0.44944164 0.046198007 0.065409407
0.44942701 0.047787845 0.06539014
0.44941235 0.049377687 0.065370873
0.44939771 0.050967529 0.065351605
0.44938305 0.052557372 0.065332338
0.44936839 0.05414721 0.065313071
0.44935375 0.055737052 0.065293804
0.44933909 0.057326894 0.065274537
0.44932446 0.058916733 0.065255277
0.4493098 0.060506575 0.06523601
0.44929513 0.062096417 0.065216742
0.4492805 0.063686259 0.065197475
0.44926584 0.065276101 0.065178208
0.4492512 0.066865936 0.065158941
0.44345844 -0.018746486 0.060054652
0.4451412 -0.016844936 0.061133217
0.44512641 -0.015242576 0.061113801
0.44511166 -0.013640217 0.061094381
0.44509688 -0.012037857 0.061074965
0.44508213 -0.010435496 0.061055545
0.44506735 -0.0088331373 0.061036129
0.44505259 -0.0072307773 0.061016709
0.44503781 -0.0056284252 0.060997292
0.44672084 -0.0037590587 0.062076207
0.44670609 -0.0021602823 0.062056832
0.44669136 -0.00056149845 0.062037457
0.44667661 0.0010372854 0.062018082
0.44496399 0.0023833732 0.0609002
0.44494924 0.0039857328 0.06088078
0.44493446 0.0055880928 0.060861364
0.44661769 0.0074324207 0.061940581
0.44660297 0.0090311971 0.061921205
0.44658822 0.010629981 0.06190183
0.4465735 0.012228765 0.061882459
0.44655877 0.013827548 0.061863083
0.44654402 0.015426332 0.061843708
0.4448311 0.016804611 0.060725436
0.44481632 0.01840697 0.060706019
0.44480157 0.02000933 0.060686599
0.44478679 0.021611691 0.06066718
0.44647035 0.023420244 0.061746832
0.44645563 0.025019027 0.061727457
0.44644091 0.026617812 0.061708082
0.44642615 0.028216587 0.06168871
0.44641143 0.029815372 0.061669335
0.44639671 0.031414155 0.06164996
0.44892979 0.033290043 0.063279621
0.44891512 0.034883462 0.063260309
0.44890043 0.036476884 0.063240997
0.44888574 0.038070295 0.063221686
0.44887108 0.039663713 0.063202381
0.44885638 0.041257136 0.063183069
0.44884169 0.04285055 0.063163757
0.44882703 0.044443965 0.063144453
0.44881234 0.046037383 0.063125141
0.44879764 0.047630802 0.063105829
0.44878295 0.04922422 0.063086517
0.44876829 0.050817635 0.063067213
0.4487536 0.052411053 0.063047901
0.4487389 0.054004472 0.063028589
0.44872424 0.05559789 0.063009277
0.44870955 0.057191305 0.062989973
0.44869485 0.058784727 0.062970661
0.44868016 0.060378142 0.062951349
0.45036462 0.062091917 0.06403216
0.45034996 0.063681759 0.064012893
0.45033529 0.065271601 0.063993633
0.45032066 0.066861436 0.063974366
0.44453871 -0.018751031 0.058858085
0.44621906 -0.016849471 0.059939317
0.4462043 -0.015247111 0.059919897
0.44618952 -0.013644751 0.059900481
0.44617477 -0.012042392 0.059881061
0.44615999 -0.010440032 0.059861645
0.44614524 -0.0088376729 0.059842225
0.44613045 -0.0072353128 0.059822809
0.4461157 -0.0056329607 0.059803389
0.44610092 -0.0040306007 0.059783973
0.44608617 -0.0024282411 0.059764553
0.44607139 -0.00082588149 0.059745133
0.44605663 0.00077647821 0.059725717
0.44604188 0.0023788379 0.059706297
0.4460271 0.0039811977 0.059686881
0.44601235 0.0055835573 0.059667461
0.44599757 0.0071859169 0.059648044
0.44598281 0.0087882765 0.059628624
0.44596803 0.010390637 0.059609208
0.44595328 0.011992996 0.059589788
0.4459385 0.013595356 0.059570372
0.44592375 0.015197716 0.059550952
0.44590896 0.016800076 0.059531536
0.44589421 0.018402435 0.059512116
0.44587943 0.020004794 0.059492696
0.44586468 0.021607155 0.05947328
0.4458499 0.023209514 0.05945386
0.44583514 0.024811873 0.059434444
0.44582039 0.026414234 0.059415024
0.44750163 0.028212063 0.060497474
0.44748691 0.029810846 0.060478099
0.44747216 0.031409629 0.060458723
0.44745743 0.033008415 0.060439348
0.44744271 0.034607198 0.060419973
0.44742796 0.036205981 0.060400598
0.44741324 0.037804767 0.060381223
0.44739851 0.039403543 0.060361847
0.44738376 0.041002329 0.060342472
0.44736904 0.042601109 0.060323097
0.44735432 0.044199895 0.060303725
0.44733956 0.045798678 0.06028435
0.44732484 0.047397457 0.060264975
0.44731009 0.04899624 0.0602456
0.44729537 0.050595026 0.060226224
0.44728065 0.052193806 0.060206849
0.44981077 0.053999964 0.061841357
0.44979608 0.055593379 0.061822049
0.44978139 0.057186797 0.061802737
0.44976673 0.058780216 0.061783429
0.44975203 0.06037363 0.061764117
0.44973734 0.061967049 0.061744809
0.45141941 0.063677259 0.062828317
0.45140475 0.065267101 0.06280905
0.44969329 0.0667473 0.061686881
0.44561899 -0.018755578 0.057661518
0.44560421 -0.017149642 0.057642058
0.44558939 -0.015543706 0.057622597
0.44557461 -0.01393777 0.057603136
0.4455598 -0.012331835 0.057583675
0.44554502 -0.010725899 0.05756421
0.44553021 -0.0091199633 0.057544749
0.44551539 -0.0075140279 0.057525288
0.44719356 -0.0056374958 0.058609489
0.44717881 -0.0040351362 0.058590069
0.44716406 -0.0024327766 0.058570649
0.44714928 -0.00083041686 0.058551233
0.44713452 0.00077194284 0.058531813
0.44711974 0.0023743026 0.058512397
0.44710499 0.0039766622 0.058492977
0.44709021 0.0055790218 0.058473561
0.44707546 0.0071813818 0.058454141
0.44706067 0.0087837409 0.058434725
0.44704592 0.010386101 0.058415305
0.44703114 0.011988461 0.058395889
0.44701639 0.01359082 0.058376469
0.44700161 0.01519318 0.058357053
0.44698685 0.01679554 0.058337633
0.44697207 0.018397899 0.058318213
0.44695732 0.020000258 0.058298796
0.44694257 0.021602619 0.058279376
0.44692779 0.023204979 0.05825996
0.44691303 0.024807338 0.05824054
0.44689825 0.026409699 0.058221124
0.4468835 0.028012058 0.058201704
0.44686872 0.029614417 0.058182288
0.44854763 0.031405106 0.059267487
0.44853291 0.033003889 0.059248112
0.44851819 0.034602672 0.059228737
0.44850343 0.036201458 0.059209362
0.44848871 0.037800241 0.059189986
0.44847396 0.039399017 0.059170611
0.44676536 0.040830929 0.05804636
0.44675058 0.042433288 0.05802694
0.44673583 0.044035647 0.058007523
0.44672105 0.045638006 0.057988103
0.4467063 0.047240365 0.057968687
0.44838557 0.048991717 0.059054364
0.44837084 0.0505905 0.059034988
0.44835612 0.052189279 0.059015613
0.44834137 0.053788062 0.058996238
0.44832665 0.055386849 0.058976863
0.4483119 0.056985628 0.058957487
0.44829717 0.058584411 0.058938112
0.44828245 0.060183197 0.058918737
0.45080921 0.061962537 0.060557567
0.45079455 0.063555956 0.060538255
0.45077986 0.065149374 0.060518946
0.4482235 0.066578329 0.05884124
0.44247362 -0.019508177 0.053700056
0.44414905 -0.017597657 0.054786522
0.4466697 -0.015548252 0.05642603
0.44665489 -0.013942315 0.056406569
0.4466401 -0.01233638 0.056387104
0.44662529 -0.010730444 0.056367643
0.44661048 -0.0091245091 0.056348182
0.4465957 -0.0075185732 0.056328721
0.44658089 -0.0059126378 0.05630926
0.4465661 -0.0043067024 0.0562898
0.44655129 -0.0027007668 0.056270335
0.44653648 -0.0010948312 0.056250874
0.4465217 0.00051110436 0.056231413
0.44650689 0.0021170473 0.056211952
0.44649211 0.0037229829 0.056192491
0.44647729 0.0053289183 0.05617303
0.44646251 0.0069348542 0.056153566
0.4464477 0.0085407896 0.056134105
0.44643289 0.010146725 0.056114644
0.44641811 0.01175266 0.056095183
0.44640329 0.013358597 0.056075722
0.44638851 0.014964532 0.056056261
0.4463737 0.016570468 0.056036796
0.44635892 0.018176403 0.056017336
0.44634411 0.019782338 0.055997875
0.4463293 0.021388274 0.055978414
0.44631451 0.022994209 0.055958953
0.44799089 0.024802802 0.057046641
0.44797614 0.026405163 0.057027221
0.44796136 0.028007522 0.057007805
0.44794661 0.029609881 0.056988385
0.44793183 0.031212235 0.056968968
0.44791707 0.032814592 0.056949548
0.44790229 0.034416955 0.056930132
0.44788754 0.036019314 0.056910712
0.44787276 0.037621673 0.056891292
0.44785801 0.039224032 0.056871876
0.44784322 0.040826391 0.056852456
0.44782847 0.042428751 0.05683304
0.44781372 0.044031113 0.05681362
0.44779894 0.045633473 0.056794204
0.44778419 0.047235832 0.056774784
0.4477694 0.048838191 0.056755368
0.44775465 0.05044055 0.056735948
0.44773987 0.052042909 0.056716532
0.44772512 0.053645268 0.056697112
0.44940212 0.055382323 0.057785627
0.44938737 0.056981102 0.057766251
0.44937265 0.058579888 0.057746876
0.44935793 0.060178671 0.057727501
0.44934317 0.061777454 0.057708129
0.44932845 0.063376233 0.057688754
0.4493137 0.064975016 0.057669379
0.44929898 0.066573799 0.057650004
0.44167 0.067695223 0.05264328
0.44187206 -0.019811979 0.051388226
0.44354501 -0.017897872 0.052477263
0.44521809 -0.015990919 0.053566433
0.44520324 -0.014379611 0.053546909
0.4451884 -0.012768311 0.053527381
0.44517353 -0.011157013 0.053507857
0.44515869 -0.0095457127 0.053488329
0.44514385 -0.0079344064 0.053468801
0.44512901 -0.0063231071 0.053449277
0.44511417 -0.0047118077 0.053429749
0.44509929 -0.0031005084 0.053410221
0.44761676 -0.0010993767 0.055054318
0.44760197 0.00050655886 0.055034857
0.44758716 0.002112502 0.055015396
0.44757238 0.0037184374 0.054995935
0.44755757 0.005324373 0.054976471
0.44754279 0.0069303084 0.05495701
0.44752797 0.0085362438 0.054937549
0.44751316 0.01014218 0.054918088
0.44749838 0.011748116 0.054898627
0.44748357 0.013354051 0.054879166
0.44746879 0.014959986 0.054859702
0.44745398 0.016565923 0.054840241
0.44743919 0.018171858 0.05482078
0.44742438 0.019777793 0.054801319
0.44740957 0.021383729 0.054781858
0.44739479 0.022989664 0.054762397
0.44737998 0.0245956 0.054742932
0.44736519 0.026201542 0.054723471
0.44735038 0.027807478 0.05470401
0.4473356 0.029413413 0.05468455
0.44900972 0.031207699 0.055775065
0.44899493 0.032810058 0.055755649
0.44898018 0.034412418 0.055736229
0.4489654 0.036014777 0.055716809
0.44895065 0.037617136 0.055697393
0.44724679 0.039049026 0.05456778
0.44723201 0.040654961 0.054548319
0.4472172 0.0422609 0.054528855
